ply
format ascii 1.0
comment Created by Blender 2.68 (sub 0) - www.blender.org, source file
element vertex 1847
property float x
property float y
property float z
property list uchar uint vertex_indices
end_header
-11.1294 -186.416 307.872
-23.5794 -193.456 307.792
-28.5694 -195.446 322.182
-35.5294 -204.956 325.692
-21.3594 -206.486 300.212
-18.1294 -203.686 285.322
-17.9894 -216.466 276.882
-16.1994 -213.826 261.912
-2.55938 -209.866 258.322
-10.6494 -177.786 303.312
0.03062 -201.306 263.642
4.01062 -217.546 260.702
-2.09938 -207.866 248.122
-25.4994 -185.836 330.852
-29.7594 -185.896 344.592
-37.2694 -173.016 346.802
-32.9194 -162.816 341.332
-17.9694 -186.136 354.292
-11.4694 -199.776 355.852
-21.9194 -209.846 360.262
-17.8894 -224.096 356.912
-13.6594 -224.896 343.092
-20.2794 -178.056 327.972
-21.2194 -221.556 336.802
-5.17938 -219.026 341.712
-11.2794 -234.746 340.782
-48.2794 -172.326 354.492
-53.8694 -159.526 358.932
-43.9694 -151.196 367.022
-33.6094 -155.906 371.722
-66.2594 -163.736 366.332
-63.2194 -177.646 371.472
-55.0694 -184.006 360.302
-46.9094 -138.406 368.372
-38.2194 -129.536 375.652
-39.6694 -131.146 390.892
-50.6094 -133.486 396.402
-41.2594 -115.256 372.722
-41.4494 -111.236 358.352
-53.2094 -112.616 351.122
-29.9194 -106.606 352.472
-53.3894 -109.356 337.672
-30.1994 -103.386 339.002
-41.8594 -104.796 331.682
-55.5094 -135.186 364.972
-28.3794 -129.516 397.792
-27.6694 -129.426 412.272
-28.2194 -114.716 416.152
-20.8894 -106.946 410.062
-14.4694 -134.746 417.212
-10.0994 -147.136 411.812
-20.2194 -127.316 392.812
-11.7394 -147.246 402.342
-36.7294 -110.056 425.212
-36.0994 -96.3957 430.532
-24.8994 -98.2557 440.972
-25.2894 -107.266 449.452
-49.8994 -92.4957 436.862
-61.0594 -93.7957 426.362
-49.4194 -78.5957 442.132
-62.3094 -84.0157 414.382
-42.9994 -116.286 429.392
-14.0294 -90.8757 440.432
-2.99938 -93.1957 449.282
0.41062 -80.0057 455.472
-4.80938 -69.6157 451.572
8.41062 -98.0357 441.322
6.36062 -111.606 434.622
13.4906 -122.736 441.942
23.9706 -119.736 447.702
8.68062 -134.126 441.912
-13.6594 -83.0057 434.672
9.14062 -80.2957 465.272
14.1606 -68.0557 470.812
28.3606 -67.7557 465.152
35.6406 -77.7957 464.732
13.4306 -68.8057 486.182
24.6806 -61.1157 492.822
21.4206 -50.6357 503.392
12.7206 -41.7957 501.402
28.3006 -51.3557 513.682
13.5406 -88.6757 467.782
32.2806 -56.1757 460.322
44.8206 -55.0757 453.422
50.8706 -42.2257 458.402
44.8206 -33.7657 464.832
43.3506 -54.6057 437.342
37.6406 -67.7757 432.122
34.4206 -42.8157 433.052
27.8606 -47.9157 462.852
63.2506 -40.8957 454.922
70.6506 -29.5757 458.992
74.5606 -21.9057 446.802
82.4306 -27.4157 438.902
82.4806 -34.7357 466.292
78.3906 -33.3057 480.782
88.7706 -38.8957 490.102
99.8506 -33.1557 491.002
85.3606 -49.0957 496.222
67.6406 -47.6557 449.372
68.8606 -9.9657 445.472
71.7506 -1.39569 434.352
83.5006 7.41432 438.662
82.2806 15.9743 447.742
59.5106 7.19431 430.922
62.1306 13.9543 417.512
46.9206 -1.15569 430.332
62.8306 -6.75569 452.422
95.2606 4.86432 432.502
107.291 12.6543 434.922
104.941 27.5343 432.482
96.4406 30.8543 424.332
118.221 7.55432 425.732
95.2806 -2.12569 425.612
111.391 37.2143 438.992
111.621 51.3443 434.672
117.601 53.8843 420.522
126.161 46.2543 415.622
119.331 58.4343 445.812
129.821 48.0343 448.992
121.471 35.3243 449.302
113.071 64.1943 413.352
117.911 67.4443 400.032
131.901 73.2543 399.092
136.131 82.3343 406.552
107.171 76.5143 394.702
101.231 83.2443 406.472
100.891 71.6443 416.332
139.661 67.6443 390.062
152.961 72.9443 388.002
152.511 84.9443 378.382
141.751 90.5243 375.972
161.521 61.9543 382.582
163.711 49.2643 390.552
171.361 41.2743 379.822
181.581 30.2843 383.692
176.451 16.6243 382.632
136.511 59.9143 385.062
168.211 15.5443 388.882
173.581 14.7243 372.812
183.851 9.88431 385.462
163.491 89.6243 372.362
162.941 101.444 363.772
154.601 98.2743 351.702
155.511 87.2043 346.192
176.601 105.954 358.452
171.821 84.5543 372.902
146.091 108.194 348.432
137.081 108.174 336.872
126.741 96.8643 338.052
122.651 91.2243 327.682
145.021 106.584 323.462
154.431 118.254 320.842
151.711 131.034 317.972
168.121 117.084 321.442
163.131 137.424 316.872
172.941 129.014 319.042
145.401 115.654 354.682
143.001 135.634 318.162
182.451 131.384 319.182
122.871 92.8243 350.442
112.071 83.3543 352.412
100.851 90.6743 359.522
102.861 101.814 364.452
116.941 72.0143 360.342
125.221 64.1743 350.732
130.781 51.2643 355.972
130.911 49.1443 367.872
134.941 43.0443 348.102
127.211 96.4843 358.412
88.5806 85.5843 359.422
77.0706 92.2243 365.252
70.7806 81.1143 372.752
72.5306 69.6543 368.752
67.8306 97.3843 353.992
54.4306 103.064 358.892
75.3506 108.764 346.972
87.1006 76.8743 355.112
63.9006 83.7643 383.642
56.8806 73.1443 390.612
42.6606 78.1243 390.982
40.0206 89.7343 394.332
62.2106 71.3943 404.642
58.3706 58.5143 411.332
60.6206 61.5943 425.662
69.4106 52.3443 432.672
75.4406 55.1743 444.312
74.0806 66.7743 450.572
82.6706 45.5343 449.762
63.1306 93.0043 386.852
71.1406 43.5643 428.672
68.5006 73.9643 446.582
78.7406 68.3143 459.292
83.5106 36.7243 445.132
87.5406 47.1343 458.322
33.5306 69.2543 387.422
19.5606 72.9243 385.142
10.1906 64.7443 393.962
12.0006 52.6543 395.922
15.5006 70.6743 370.002
25.1606 77.6443 360.832
1.24062 75.9443 367.572
21.9906 74.7543 346.172
36.1206 59.8543 386.542
0.58062 71.7743 399.612
-9.63938 65.6443 407.152
-20.8894 63.5543 396.872
-26.7394 72.8343 390.852
-13.2894 75.0243 418.042
-22.0794 66.6443 426.642
-33.3994 74.0543 433.792
-40.8494 62.3643 441.012
-52.7194 65.6143 448.832
0.28062 81.3843 398.282
-50.1294 72.3143 456.352
-59.8594 69.9443 442.632
-56.5894 56.9443 453.072
-23.6694 50.8443 394.212
-34.1194 47.2943 384.732
-48.0494 51.1243 389.652
-50.2794 53.2243 401.582
-33.2894 32.2543 381.912
-20.1794 27.8343 375.032
-19.5994 30.1443 357.162
-15.4694 47.1543 354.582
-19.4394 43.8743 399.682
-57.9794 52.5843 381.012
-71.1194 57.2043 385.232
-81.4894 47.9443 378.792
-90.9294 42.9243 385.162
-72.4294 72.2343 380.882
-84.9694 78.2143 386.082
-62.4894 80.9843 387.932
-56.3494 50.7343 371.532
-79.2294 45.2943 365.852
-87.0694 36.5043 357.072
-78.0694 30.8343 345.962
-69.7594 38.1543 340.332
-98.3194 44.3743 350.442
-71.8694 49.8943 361.302
-79.1594 17.9443 342.912
-71.2694 11.7943 332.512
-81.1094 3.48431 324.592
-89.7694 -2.66568 330.852
-60.1194 3.68431 339.662
-50.1494 0.604309 330.242
-64.7994 -9.23569 345.552
-85.8394 12.3543 347.402
-44.9894 -6.33568 334.532
-81.3394 3.46431 311.242
-89.7494 -5.77568 303.732
-82.9394 -19.3857 302.252
-70.7794 -21.3257 304.322
-74.6794 8.79431 306.492
-91.6394 -28.9657 298.852
-87.9494 -42.7857 295.482
-89.2694 -44.2757 280.172
-99.3394 -40.6657 274.022
-97.2194 -52.9357 302.762
-93.0394 -53.1457 317.232
-96.2894 -67.1557 296.882
-102.559 -61.5757 325.312
-101.119 -26.4657 298.202
-78.9594 -49.9457 274.102
-77.4394 -50.8857 259.832
-70.8894 -64.0657 255.802
-61.0894 -68.4457 261.982
-68.9394 -38.8057 255.402
-60.4794 -38.3057 239.182
-71.9294 -53.9157 279.652
-75.7194 -69.9857 244.852
-70.3094 -81.8457 238.332
-55.2794 -83.6957 239.332
-50.9694 -94.6357 242.622
-74.5394 -81.1857 223.662
-73.2394 -93.7257 214.862
-79.8394 -106.976 220.252
-94.5794 -108.276 220.742
-100.989 -117.916 228.112
-94.0894 -126.956 235.682
-114.459 -118.946 227.432
-83.8194 -66.0657 240.882
-100.069 -101.766 215.932
-84.1094 -126.636 236.102
-99.0494 -133.806 241.022
-119.669 -112.726 221.582
-119.189 -125.926 232.802
-47.0894 -73.2957 237.432
-32.6194 -74.5857 236.962
-26.5494 -79.2557 250.062
-16.7594 -87.0557 249.992
-25.6094 -61.4557 233.292
-31.4294 -53.0857 223.342
-51.1594 -64.6057 235.892
-31.2894 -58.5657 215.272
-32.1794 -75.4457 261.502
-25.8194 -80.7557 273.272
-31.9494 -94.0857 276.572
-25.7594 -101.766 283.702
-26.7794 -70.6557 284.752
-38.5794 -61.4657 284.722
-49.4594 -66.5357 287.242
-36.6094 -49.5857 282.182
-40.9194 -71.0457 261.902
-43.6194 -97.3057 271.032
-48.8794 -110.796 271.682
-40.5994 -119.586 262.102
-38.2494 -131.336 265.292
-63.6294 -110.566 267.862
-70.6094 -124.216 267.122
-67.1694 -133.356 274.362
-79.6194 -125.946 259.032
-48.8594 -90.4457 266.452
-35.1994 -114.826 250.722
-26.1594 -122.796 242.482
-13.7694 -126.736 250.222
-7.81938 -136.766 246.932
-20.1994 -115.786 230.352
-29.3794 -112.306 218.912
-27.8894 -102.176 210.322
-40.9894 -119.106 215.802
-38.1794 -102.526 202.232
-45.9094 -112.656 205.582
-37.0094 -105.546 248.442
-20.7594 -95.2257 210.072
-54.6494 -114.656 201.532
-8.88938 -118.646 259.482
2.78062 -121.406 267.952
0.92062 -134.316 276.172
9.16062 -143.856 276.832
4.58062 -108.836 276.992
14.8906 -110.296 287.772
8.70062 -97.6457 268.032
-13.3794 -110.046 260.782
-11.3594 -133.646 281.852
-16.5794 -143.936 290.712
-17.1494 -156.756 282.972
-11.9394 -166.586 288.242
-30.9694 -141.386 296.152
-34.8194 -153.376 305.222
-31.7394 -128.186 303.802
-17.0394 -125.906 279.912
-23.2294 -156.986 271.212
-22.9894 -169.386 263.872
-8.89938 -174.026 259.522
-8.12938 -185.226 254.612
-32.0894 -168.256 251.392
-38.6394 -155.686 248.752
-27.7894 -149.116 267.522
-44.2894 -153.666 256.392
2.70062 -167.156 260.762
15.2606 -172.096 255.212
17.7606 -165.626 241.582
29.2706 -163.696 237.522
2.96062 -158.616 265.542
7.19062 -161.686 234.322
7.75062 -155.366 220.982
16.2206 -142.796 219.472
24.8406 -142.476 210.622
-6.95938 -153.276 217.102
-9.02938 -165.806 211.122
-11.1394 -141.936 208.132
-1.63938 -163.176 238.122
-18.3294 -167.186 209.172
14.2306 -132.126 227.262
23.5006 -121.056 226.702
34.0206 -125.706 236.742
31.2206 -128.426 248.662
16.5706 -109.016 231.362
21.3106 -95.4757 227.212
9.22062 -86.2857 228.982
33.9006 -91.2057 234.802
8.23062 -133.026 234.942
46.1706 -127.576 231.222
57.0306 -132.166 239.832
63.8306 -119.436 244.822
68.1906 -110.576 237.232
67.9306 -140.796 232.722
76.8106 -146.956 243.792
61.7406 -151.396 223.382
47.6206 -126.136 221.662
62.9606 -118.506 258.152
68.9306 -108.046 266.252
73.7106 -116.496 278.192
68.1706 -127.196 281.322
57.5106 -97.6657 268.682
63.7306 -85.5357 272.682
47.3306 -102.276 278.532
57.9606 -125.456 263.012
66.5306 -80.9957 264.672
85.2806 -113.406 284.072
90.3606 -120.656 295.922
81.1406 -121.266 308.262
76.0806 -111.056 313.462
103.661 -113.876 298.572
101.761 -100.286 292.282
94.9006 -103.686 279.132
79.0206 -133.566 313.062
70.9606 -135.926 325.102
79.4406 -137.896 337.802
90.8506 -142.176 335.842
62.1606 -148.126 322.702
52.4506 -147.496 311.802
43.9606 -159.446 312.672
43.4906 -135.816 313.442
83.1706 -141.266 308.692
75.6606 -135.106 350.522
63.5306 -128.446 354.892
63.1306 -113.916 350.902
73.7406 -107.656 350.042
63.5606 -130.606 369.832
78.0506 -130.616 373.652
83.0906 -139.276 362.472
51.0706 -108.526 349.252
48.9506 -95.0957 343.952
36.2306 -88.8757 349.822
27.0606 -95.8757 354.572
48.7206 -96.5157 327.922
36.4306 -104.136 323.502
48.6606 -83.0657 320.982
43.1706 -113.636 352.092
36.7506 -75.5057 350.292
25.2006 -67.0057 353.452
20.4006 -62.5457 339.192
27.1306 -54.5157 332.692
28.6706 -53.8457 361.702
37.0106 -56.2457 374.232
15.5206 -47.2257 365.282
31.4506 -63.4157 386.502
45.2506 -71.0957 348.022
9.52062 -67.5357 333.092
5.03062 -63.5257 320.062
-1.78938 -49.9957 321.642
-0.41938 -42.6957 331.502
-4.51938 -74.1357 314.912
3.89062 -73.7757 338.152
-9.67938 -46.0057 312.022
-16.6794 -33.3457 312.112
-9.17938 -23.5757 303.462
2.75062 -21.4457 305.272
-10.3294 -51.6657 304.122
-15.7994 -17.7857 293.682
-9.79938 -7.30568 285.602
-19.9894 3.94432 283.912
-16.1794 14.9543 280.282
-5.18938 -12.9057 271.512
-15.6294 -19.6357 262.322
-19.5594 -32.2957 262.912
-23.2494 -13.2857 252.822
-29.2394 -33.9457 254.622
-31.7394 -22.5257 248.232
-25.1194 -20.2357 292.132
-14.7994 -39.4157 267.782
-32.9494 2.40431 286.852
-42.4294 13.1643 283.812
-48.1794 19.8943 296.312
-57.3694 14.5643 302.292
-53.6694 7.29431 275.012
-63.4094 18.2843 271.102
-75.9194 13.9543 264.082
-83.8794 6.81432 269.652
-77.9294 18.1043 252.892
-36.1694 -5.08568 292.212
-43.7494 31.7143 300.332
-47.5494 37.5643 313.132
-45.1394 52.4143 313.392
-38.4694 57.5343 304.522
-39.4394 31.8643 324.732
-37.7494 36.9643 294.582
-50.9594 58.9243 323.392
-49.3094 72.9743 326.502
-47.3894 72.7443 341.682
-51.7594 62.9743 347.962
-61.8494 80.6543 322.982
-56.2294 53.7243 329.892
-40.8494 82.8243 347.932
-38.2094 83.8143 362.572
-32.9894 97.5743 367.102
-34.5394 107.724 359.912
-37.5894 90.2543 342.362
-27.2694 98.4643 379.302
-20.6494 110.894 384.062
-5.97938 108.924 387.882
-2.06938 98.1443 392.152
-28.3094 117.134 396.052
-41.5794 123.194 391.792
-21.3494 129.384 400.812
-53.7194 115.914 397.952
-27.0194 90.5943 385.082
2.41062 118.974 385.192
16.8906 118.944 387.582
19.9106 120.774 402.422
14.7906 130.234 408.372
23.8806 130.354 379.592
38.6006 131.514 382.482
23.4606 126.924 365.152
-1.57938 127.064 381.502
27.9506 111.784 408.242
31.6706 111.914 422.352
46.2506 116.984 423.512
49.0106 128.594 426.772
29.4806 97.3643 427.442
32.2606 93.1043 442.012
46.6806 92.8543 447.512
55.6106 86.7143 442.052
49.1806 98.7843 457.832
31.6906 104.824 402.482
56.1806 108.944 420.182
69.8706 113.004 421.552
75.4506 116.744 408.012
71.1306 110.004 398.692
77.0106 101.464 426.962
84.6306 105.324 437.772
54.2306 100.644 415.442
93.8206 105.894 434.622
83.9906 126.524 405.202
90.4506 126.384 392.042
105.631 123.794 393.902
111.041 127.384 404.432
88.1906 139.664 383.942
94.2206 151.844 390.682
73.3606 140.074 380.782
89.9706 164.974 384.082
87.0006 132.864 412.122
113.041 117.074 385.112
126.871 114.524 387.592
134.671 126.704 383.502
129.321 136.774 378.882
109.191 114.784 376.452
147.911 125.414 384.552
157.601 135.704 380.572
156.491 139.344 365.642
156.021 130.894 356.572
172.541 131.174 383.262
176.821 125.974 397.412
181.721 111.074 398.742
173.471 101.664 398.732
193.851 108.734 400.142
151.071 116.954 388.302
156.041 152.334 362.822
155.941 157.654 349.122
142.451 155.624 342.442
142.271 152.064 330.682
155.251 158.534 370.322
131.121 156.414 349.432
118.111 155.124 343.432
111.781 169.104 341.982
107.771 176.554 350.962
110.121 144.704 352.252
95.5506 145.984 349.162
113.741 130.274 348.942
131.451 158.074 359.072
112.521 172.574 329.332
107.241 184.794 323.522
92.7106 185.044 318.782
87.2306 196.034 317.602
115.501 189.064 311.282
127.251 180.574 310.262
117.821 204.374 312.072
118.061 167.234 323.252
133.731 185.854 305.272
85.9906 173.874 315.682
72.4306 173.994 310.232
60.9406 172.124 320.102
49.5406 175.974 317.102
71.2806 163.324 299.912
75.4706 151.114 305.952
79.4006 167.054 287.662
89.1106 165.294 318.862
73.2206 143.874 299.892
63.4306 165.364 331.462
52.8206 163.154 341.122
58.5706 167.174 354.592
70.7806 168.284 356.962
48.1106 148.204 341.692
41.4306 143.944 328.352
60.1606 139.334 344.452
72.5606 163.144 334.132
49.0806 169.884 363.422
51.9106 174.514 376.802
40.9706 167.874 384.892
29.8306 165.954 380.132
50.8106 189.844 377.682
61.1106 196.854 368.492
70.1706 207.414 374.862
79.0306 200.454 383.922
79.4506 203.034 397.362
71.5606 212.754 403.292
87.0406 194.484 405.072
39.6606 168.534 361.122
85.0006 193.584 380.272
65.2206 218.144 397.752
72.1506 214.294 413.152
91.9506 186.914 400.752
87.7406 195.954 414.932
44.0906 163.364 396.852
34.6706 157.214 405.982
20.8106 163.544 406.222
18.8906 175.634 406.172
42.3406 157.874 419.122
51.3006 170.024 417.802
56.2606 167.184 404.012
11.2106 154.874 404.642
-2.61938 158.544 405.432
-8.46938 159.824 391.512
-20.4294 161.974 389.932
13.4506 146.214 401.052
-0.32938 158.224 381.012
-5.11938 159.504 367.372
-12.7394 147.154 363.602
-8.88938 136.004 367.122
6.55062 161.424 357.142
12.3706 175.594 355.222
6.16062 185.364 359.392
23.2006 177.034 349.332
9.28062 157.264 382.502
-23.8194 149.834 356.822
-31.4694 139.324 350.462
-22.4694 134.484 338.752
-15.8694 142.624 331.952
-44.4194 145.654 345.482
-54.5794 151.264 355.122
-63.1894 139.904 359.762
-75.4394 143.494 368.462
-86.1894 150.654 361.812
-26.6194 159.114 355.622
-89.5794 145.104 353.732
-94.0094 152.354 368.452
-82.4094 159.664 358.412
-21.6094 121.564 335.822
-13.1594 116.344 325.032
-18.5494 103.244 319.382
-27.0794 96.7643 325.402
1.62062 113.214 329.372
9.50062 125.174 333.602
1.09062 103.984 341.162
-26.9094 115.184 341.112
-13.5694 98.8843 307.942
-17.1494 86.1643 301.792
-3.78938 79.6743 298.062
4.25062 85.8243 291.042
-26.5994 88.5643 289.012
-41.1394 91.1943 292.452
-27.5794 75.7543 281.072
-49.3194 97.8543 281.532
-7.14938 104.604 303.182
-0.11938 68.0343 303.512
11.4706 60.1743 299.012
11.1306 57.2343 284.252
0.41062 54.0843 279.012
11.3806 47.4843 307.312
6.21062 52.7243 320.272
-4.74938 62.9643 316.472
22.5106 57.4143 277.372
23.0106 55.2143 263.002
30.6606 42.1943 260.422
42.7106 40.5343 262.952
29.8506 67.2343 256.272
24.5806 81.2343 258.712
34.1706 91.1543 252.902
10.6706 82.3043 253.682
30.9306 57.5343 282.292
22.5806 32.6443 255.712
27.5306 19.4843 252.492
36.5206 20.3143 240.002
45.5806 12.1043 237.392
15.0106 10.2343 251.152
9.08062 7.80431 237.452
14.6806 -1.61569 228.882
-1.84938 15.1243 233.262
9.52062 -3.68568 216.372
-6.96938 13.0043 220.642
-1.31938 3.67432 212.262
12.9506 34.3843 255.302
34.2806 30.2443 231.332
43.7106 32.8943 220.622
48.4506 47.0943 222.242
40.6006 56.4043 221.522
36.8406 30.4243 207.172
23.4506 35.1143 208.352
37.6806 15.5443 203.262
25.8806 35.2243 231.302
23.4606 44.5843 206.472
61.2506 48.6443 225.192
67.2506 60.8143 230.532
68.2706 72.3543 220.862
63.9206 71.6843 209.452
81.0006 56.2643 235.452
80.9506 41.1143 235.642
71.3206 37.9843 224.352
74.2806 83.1843 224.982
77.9506 93.1443 215.502
91.0906 98.5843 220.472
92.1506 109.584 225.702
67.8606 104.144 214.792
70.6606 110.924 201.502
62.0806 123.094 199.112
49.7106 123.384 200.232
69.3806 133.664 196.142
75.0706 84.8943 234.682
64.8006 141.984 193.892
79.1006 132.694 196.052
101.951 90.9243 218.572
114.961 95.7743 223.262
120.291 108.434 216.782
131.391 112.284 219.982
125.681 84.7943 221.722
132.961 84.5543 205.052
99.9906 81.4143 217.882
113.531 114.374 206.912
118.331 126.374 200.212
130.591 124.934 191.262
130.661 132.044 181.362
103.951 112.854 206.142
140.651 116.094 193.672
153.331 115.624 185.752
155.681 106.924 173.492
163.701 109.804 164.752
165.701 112.224 194.582
170.681 121.954 205.362
162.621 119.774 218.242
165.761 130.314 228.942
164.731 143.824 223.462
140.961 112.424 202.702
155.181 145.394 219.682
166.711 150.724 230.992
171.721 144.994 215.852
150.681 94.7443 174.232
151.841 86.2543 162.782
144.741 91.7743 150.622
135.181 99.5543 151.292
146.371 72.1543 165.802
128.811 69.7143 169.792
149.681 91.4043 183.222
149.181 85.2243 140.072
144.721 86.7643 126.532
129.961 83.6643 125.022
124.591 89.6543 115.652
153.201 77.6343 117.252
151.151 62.5843 118.522
161.441 54.7343 110.462
155.811 41.4543 108.192
160.111 29.9743 114.192
170.431 29.4043 122.962
153.341 18.5643 111.872
157.031 79.5143 141.302
148.351 40.6843 101.882
175.361 37.7443 125.452
173.061 20.6543 127.012
145.541 18.6343 105.632
156.311 10.0143 116.132
122.901 75.0043 132.752
108.181 74.4943 131.482
101.271 87.0343 137.372
92.2306 92.6943 131.282
102.641 62.0043 138.152
88.5306 60.7143 134.012
109.871 49.4343 133.902
127.721 67.8643 137.272
106.951 92.4743 148.282
101.841 104.274 155.202
104.411 116.944 147.322
97.6806 127.134 148.872
108.361 106.374 168.602
103.301 95.3743 182.112
116.121 89.8643 149.932
115.321 116.514 139.732
118.801 127.254 130.692
110.341 126.324 118.062
105.661 136.414 112.762
133.451 125.974 127.672
141.651 127.094 140.362
139.651 140.904 146.322
150.151 144.594 156.602
163.801 142.974 151.832
121.421 108.974 140.432
165.271 148.784 143.342
170.391 145.974 159.292
165.501 132.974 149.532
107.821 114.104 113.342
100.211 111.884 101.132
86.3106 118.534 101.512
79.6006 116.084 111.552
98.4006 96.8543 98.6719
93.9406 94.8143 84.3019
81.7906 95.8143 78.8119
102.721 92.0543 74.1219
83.0606 93.8043 65.8519
95.6206 91.5943 63.1719
110.731 106.354 118.512
73.1406 95.1543 83.4119
99.1606 89.5643 54.1719
80.7506 126.034 91.6119
68.1606 133.154 93.4119
55.7306 124.484 93.9819
44.6206 129.634 95.0819
67.5606 143.034 82.2419
81.7806 146.744 81.4219
88.2406 133.164 81.5019
57.3206 111.294 93.7919
45.5506 103.124 94.2119
47.6106 91.2743 103.272
37.9306 86.2143 108.802
41.5706 98.2743 80.0519
31.0906 107.404 72.5719
15.9506 107.174 76.4619
9.66062 96.5643 73.9619
10.5706 117.404 81.6019
65.5506 107.994 97.6519
60.1606 87.5643 105.412
62.5906 75.6143 112.892
58.6906 77.9543 127.502
59.2606 89.1243 132.482
67.0106 94.3543 106.282
54.1106 67.2643 134.022
49.6806 68.4843 147.672
54.8606 56.6443 155.642
55.1706 57.1643 168.092
34.2406 69.1543 148.032
25.6706 56.5643 150.492
24.0006 47.6043 142.022
19.2306 55.6243 162.132
52.2806 59.0443 128.942
13.8606 47.6743 163.812
20.1006 62.9543 168.562
59.5206 45.9043 149.232
64.2806 34.4343 156.612
78.7006 36.6943 160.762
88.2806 31.6943 154.582
62.9606 22.1343 147.952
64.6806 9.21431 155.382
56.2406 5.87431 165.652
74.3306 0.304306 151.492
57.4906 -6.51569 171.952
75.5006 -12.0457 157.742
67.0806 -15.5957 168.042
59.2506 45.3743 139.432
79.6206 44.8543 171.402
91.8706 48.5143 178.352
101.251 37.0143 181.432
97.9006 28.3543 189.602
89.2306 55.1443 192.012
104.851 58.5543 200.802
71.1306 48.3243 174.832
113.341 37.5443 175.722
124.161 28.2443 179.682
127.641 25.1043 194.652
134.721 15.6343 197.552
136.921 33.0443 172.402
136.841 32.5843 157.242
150.001 38.4143 152.262
134.011 18.2343 152.422
113.811 41.3543 166.742
122.861 31.9243 204.992
126.621 28.0343 218.322
113.691 21.5743 223.332
108.281 24.3643 234.072
130.701 40.5343 226.182
144.031 47.4443 222.082
156.611 43.3743 229.852
157.521 50.3143 243.972
167.331 44.4043 253.132
114.551 36.8543 204.042
176.801 44.9043 248.862
167.301 49.6043 262.132
164.821 34.4643 254.842
108.321 12.3743 215.552
95.6906 6.15431 218.702
99.1306 -7.8857 223.512
109.171 -13.6557 219.162
86.6506 5.5843 206.092
91.0606 -4.14569 195.022
86.9306 -15.7957 194.512
99.6506 0.21431 185.892
114.131 8.13431 208.892
102.551 -5.81569 178.732
102.531 9.52431 186.672
90.7906 -14.1757 232.082
93.1806 -27.8857 237.002
83.5406 -37.9057 230.612
81.6706 -49.0557 235.262
92.0306 -27.3757 252.572
96.9606 -39.6157 260.152
108.251 -43.2057 257.262
89.8106 -45.4357 268.552
83.2106 -9.14569 235.712
77.3406 -33.7857 219.542
68.4906 -42.3557 211.672
75.3306 -51.8957 202.192
72.1406 -63.6757 201.842
58.8406 -34.5457 203.032
44.2206 -35.8757 207.282
35.8506 -31.0657 195.622
40.4006 -50.2057 210.672
79.0406 -24.7357 216.252
84.7806 -46.6557 194.622
91.5506 -54.5757 184.462
99.2006 -66.0857 190.742
97.5606 -77.7357 186.852
101.731 -46.1357 176.372
97.1906 -33.5357 171.382
86.9006 -37.1457 195.572
93.4606 -28.0157 178.392
107.801 -62.4657 200.292
116.481 -72.4757 206.552
114.881 -71.3957 221.632
123.291 -64.7557 227.792
131.461 -70.0557 202.622
137.171 -78.8257 191.062
153.911 -85.9257 194.592
159.651 -78.4657 210.132
108.121 -53.2557 203.592
104.371 -76.4857 228.082
100.421 -72.4757 241.662
110.351 -77.2357 252.282
112.631 -89.2857 253.852
86.3706 -78.4457 243.842
82.0106 -83.4057 230.002
95.4406 -86.6757 222.802
117.351 -68.3957 259.192
125.251 -73.1757 270.302
118.641 -71.8357 284.392
123.301 -77.5557 294.432
138.971 -66.2657 269.352
138.251 -51.5557 268.352
152.181 -46.5857 270.912
151.351 -32.3057 273.792
160.521 -23.5557 269.332
171.131 -27.4757 261.992
158.751 -10.4557 271.762
119.091 -59.7957 254.972
143.801 -28.9157 279.042
172.351 -37.1057 259.552
177.751 -20.6957 258.782
150.831 -7.40569 277.062
165.561 -3.80569 268.682
106.871 -65.2857 284.732
98.8106 -62.8557 296.622
105.591 -54.4257 307.432
104.371 -58.0557 319.212
103.421 -62.0457 276.232
112.751 -43.4357 303.702
120.721 -34.9657 312.632
118.221 -20.1957 309.812
109.221 -15.9857 302.532
136.381 -37.7057 311.542
141.051 -33.3657 299.042
140.041 -52.3457 312.912
112.281 -40.2957 294.472
150.531 -34.9257 298.642
125.221 -12.2757 317.582
125.251 2.19431 316.622
136.691 4.60431 307.302
144.791 -4.4157 305.192
128.341 8.60431 330.322
117.741 7.60431 341.332
104.831 20.4443 341.472
94.5506 14.4243 328.292
131.621 -16.1357 323.882
138.881 16.8743 303.122
149.261 19.2043 293.002
163.261 15.4043 297.262
171.711 10.9343 289.452
149.901 33.9443 288.242
139.531 38.5643 277.902
137.691 29.3343 265.892
146.051 21.0343 262.002
125.991 30.7743 259.892
134.781 24.4043 307.732
124.071 24.9743 252.202
119.631 37.4443 263.172
165.571 16.3443 310.182
178.311 12.5143 315.692
179.601 -2.61569 317.242
187.141 -7.1357 325.932
179.751 19.6243 329.122
171.091 15.4143 341.032
162.201 6.96431 340.402
173.461 21.0543 351.432
158.551 19.9243 316.022
171.801 -10.8557 310.162
172.691 -25.1557 311.642
168.231 -29.9657 325.462
167.511 -42.0657 327.492
165.331 -7.19569 303.792
165.251 -22.0757 335.802
160.091 -28.0357 347.872
144.851 -26.0657 349.362
137.851 -18.6257 342.142
168.671 -22.1457 359.912
168.461 -7.96568 359.852
183.241 -26.9257 358.952
168.241 -12.7957 336.012
159.481 -4.69569 359.142
140.131 -33.3357 359.552
126.461 -34.1257 364.252
124.531 -26.0757 377.252
133.451 -24.4657 385.582
123.811 -48.9657 366.062
110.441 -49.8057 369.962
146.621 -38.2157 364.992
107.371 -58.9457 370.982
112.701 -21.1157 380.302
110.511 -13.3557 392.662
99.6406 -20.7257 401.112
91.3806 -14.2857 407.742
105.271 0.644318 389.372
112.521 9.65431 380.242
124.051 14.9843 387.702
131.941 21.9643 378.092
142.481 16.8243 371.622
147.201 4.59431 373.162
148.701 24.6043 363.162
105.051 -25.5957 376.232
129.291 31.0943 376.072
142.861 -1.7757 379.522
155.291 1.87431 368.082
145.921 34.1043 362.012
156.241 20.8843 357.912
98.4706 -34.0357 399.802
88.5506 -42.0657 406.582
95.5206 -54.4457 412.782
104.351 -61.0657 407.022
77.9106 -46.5457 396.652
69.2306 -35.8357 390.292
60.3006 -28.4657 398.132
70.3906 -33.4657 376.652
52.4006 -18.5657 392.422
62.5306 -23.6257 370.962
53.6306 -16.2157 378.712
105.401 -39.0357 395.002
91.9706 -58.0157 424.972
97.8306 -69.6857 431.602
86.7506 -74.8657 440.422
80.2306 -66.9657 447.232
110.211 -65.5357 440.022
110.091 -51.2157 440.942
123.291 -70.5357 433.912
85.9106 -52.2557 430.072
101.881 -48.0857 444.832
83.3306 -87.3757 440.232
72.4906 -92.4457 448.242
80.8106 -101.776 456.582
87.0206 -111.106 451.252
62.7406 -100.066 439.512
49.1006 -107.586 448.492
88.2306 -93.9857 434.992
81.7706 -98.7357 469.582
90.2106 -106.746 478.702
104.981 -108.536 474.022
110.001 -119.846 473.512
83.8706 -120.846 480.772
68.6306 -120.976 480.662
62.7506 -133.666 486.462
53.5306 -128.066 496.092
40.2506 -127.836 493.862
35.2306 -133.416 482.312
32.3806 -120.966 502.982
76.2606 -91.4557 473.112
57.0106 -124.286 504.442
41.3106 -137.616 475.592
25.3606 -133.246 480.692
36.6406 -116.496 510.842
22.4706 -120.566 501.802
112.451 -97.9857 470.162
125.931 -99.9957 464.792
126.351 -104.896 450.202
135.181 -100.436 442.702
108.801 -88.9757 470.742
117.361 -113.876 445.782
116.451 -117.636 431.732
112.221 -105.856 422.552
102.401 -99.0457 425.232
106.561 -128.866 430.302
104.661 -132.896 415.692
112.391 -145.526 411.322
126.631 -143.606 405.502
137.701 -143.426 415.142
111.331 -118.216 452.212
137.751 -152.176 420.752
146.691 -142.546 410.002
136.561 -135.276 421.492
119.181 -102.466 411.812
115.591 -91.7657 402.492
104.361 -95.1057 392.722
104.111 -105.996 386.712
128.541 -88.5657 395.272
139.491 -95.9957 402.632
132.021 -108.126 408.022
95.3806 -85.4457 390.742
84.0006 -86.6857 381.722
86.6006 -77.6957 369.712
88.4606 -65.7457 371.142
70.9006 -82.3357 388.812
68.2206 -90.1657 401.952
59.8206 -83.7457 378.642
68.4206 -105.446 401.612
96.9506 -76.7757 395.052
86.7606 -82.8257 357.522
88.7806 -74.5157 345.692
77.6706 -64.6757 342.632
65.9706 -67.7857 344.792
90.4006 -82.7357 332.812
102.811 -91.4057 332.932
103.981 -104.116 337.052
114.961 -87.0257 328.722
116.301 -107.736 335.542
122.621 -97.3257 330.542
83.7306 -92.0557 356.392
96.5206 -109.786 340.192
132.031 -97.3957 327.732
81.8906 -53.4057 336.842
73.2806 -42.9857 331.372
67.1706 -46.8857 317.632
73.8106 -53.8257 309.992
81.0106 -30.1057 329.122
84.5306 -21.2057 340.992
79.0706 -9.2757 344.062
94.2006 -24.1957 350.392
85.0806 -5.07568 354.932
94.0606 -13.9857 358.632
91.4106 -53.0657 334.572
72.1506 -4.10568 339.312
100.831 -11.9457 365.392
55.0406 -42.4657 313.822
48.4706 -45.2957 301.122
46.7506 -31.8457 294.352
41.1306 -22.6357 300.242
34.2906 -51.4257 302.402
27.3606 -55.8957 289.372
33.1506 -65.4457 280.942
15.1506 -50.3257 285.742
26.9206 -69.2757 269.162
8.94062 -54.2357 273.942
14.8006 -63.6357 265.692
49.9306 -36.9957 320.082
52.6806 -32.0557 282.072
53.4706 -21.6357 271.782
57.9806 -8.41568 277.572
54.5606 2.48431 272.902
39.6506 -20.2457 264.672
37.0406 -27.3257 251.372
41.6406 -41.4757 252.022
22.4206 -28.3657 248.492
56.6406 -40.6757 279.662
66.5706 -10.1657 287.732
71.1006 1.0043 295.942
59.7206 9.6743 301.742
61.2506 21.9743 302.682
70.3706 -19.0157 289.252
48.4906 2.85431 305.002
36.7506 8.51431 311.362
32.4906 0.444305 323.442
31.7406 6.59431 333.832
24.0406 9.62431 302.102
20.8006 -2.75569 296.202
26.4006 19.7543 291.612
47.3706 -5.91568 301.152
15.4806 -8.37569 301.882
29.6306 -12.6657 322.912
24.4706 -20.7557 333.852
12.9806 -13.8757 341.552
13.9206 -11.1757 353.682
36.0506 -23.9557 342.962
44.8306 -33.5557 337.662
30.1806 -16.9657 314.182
39.2706 -41.4157 336.652
1.53062 -10.8857 335.442
-8.33938 -3.01569 342.422
-17.9694 -11.1557 351.332
-27.4794 -5.51569 356.752
-15.3094 5.40431 331.422
-22.6394 -3.26569 323.372
-5.72938 12.2143 322.002
-0.18938 -14.0957 326.372
-31.5294 0.644318 322.642
-16.5194 -24.4857 353.182
-24.5694 -32.5857 362.202
-17.9794 -32.5057 376.162
-15.3894 -42.5157 382.872
-25.5094 -46.9957 356.762
-33.9494 -49.6357 344.252
-43.5194 -40.4957 339.592
-32.0294 -61.6857 337.222
-50.9194 -43.3957 328.192
-39.5194 -64.4757 325.762
-48.9094 -55.3357 321.382
-9.26938 -28.9557 348.312
-15.2594 -20.8657 381.432
-8.18938 -19.4257 393.882
-13.4494 -6.65569 399.412
-17.8094 1.92432 391.652
6.45062 -18.0057 391.622
13.3106 -18.3657 403.772
-18.5494 -12.6257 377.172
21.4706 -13.3257 402.462
-13.2894 -5.22569 412.652
-18.6094 6.99431 417.992
-9.51938 18.8043 415.152
-13.9994 30.2243 414.232
-20.7494 5.49431 432.572
-31.6194 -4.48569 434.922
-35.9394 -6.03569 449.502
-27.8794 -7.35568 458.722
-49.0194 -6.00568 451.902
-9.53938 -12.2857 418.422
-51.7494 -6.47569 461.272
-55.2194 -5.08568 444.392
3.19062 15.7443 413.012
13.7206 25.1843 410.302
22.7706 19.0243 399.872
24.3006 6.73431 399.282
21.9006 27.7343 422.822
15.5506 37.0743 432.792
5.73062 32.6343 441.242
19.6406 49.9943 432.562
-0.39938 41.5543 449.572
13.7406 58.8143 440.852
3.83062 54.5743 449.232
-2.43938 64.0443 457.062
5.82062 6.29431 412.672
0.62062 72.8043 454.672
29.3806 27.5143 392.042
38.5506 22.8343 381.512
48.8406 33.5043 378.422
47.4506 45.0043 382.612
30.5806 18.8043 368.532
40.4906 12.0543 360.982
22.9806 29.9243 361.582
28.0406 37.1943 393.112
36.4606 9.68433 352.472
59.6506 29.6843 372.052
70.0306 39.2643 368.902
71.6706 38.2543 353.642
72.2106 26.9943 348.182
83.2606 35.5643 376.732
94.2306 45.7143 374.402
80.8206 36.3243 391.702
59.7006 20.8543 367.772
71.6006 49.6543 346.562
73.2706 49.8843 332.142
84.5206 59.6143 328.722
87.5306 68.9343 336.222
59.8406 54.0643 324.202
49.1406 43.4943 326.362
54.7206 67.8043 328.382
71.3206 58.2043 351.382
91.5706 57.6243 317.632
101.661 67.1143 313.552
94.9306 79.5643 308.442
83.7506 78.7843 303.322
110.291 61.0543 302.832
121.121 52.3543 309.072
130.401 58.1843 314.652
120.381 40.0343 308.402
89.8806 49.5743 312.282
101.291 91.2143 309.312
94.9806 103.794 305.212
90.3106 103.364 290.352
80.8506 110.224 286.512
105.161 115.624 308.392
99.2806 129.554 305.572
107.211 142.284 307.922
119.261 143.444 305.402
100.751 151.544 312.112
110.351 91.2943 313.092
95.7506 94.9643 281.542
90.6006 93.5443 267.792
77.7106 84.8943 266.792
71.7906 83.2443 256.132
101.821 87.3543 258.572
105.431 72.9243 262.652
113.721 97.0543 258.792
115.271 66.1743 253.152
103.341 89.5843 284.492
72.9306 78.7643 277.562
61.1906 70.3043 277.402
50.2806 75.7543 286.462
42.5006 67.9643 291.732
65.1606 56.1443 281.572
70.7606 49.1943 270.522
77.1906 80.2943 286.152
63.8206 43.1943 267.332
49.0206 88.9043 288.182
38.2306 94.9543 295.822
34.8606 107.954 288.352
43.5306 114.614 282.652
43.1106 96.7343 311.302
53.4406 107.224 314.002
30.9806 100.104 319.152
55.2306 95.1043 283.732
22.0406 110.954 286.482
17.9906 123.624 280.442
9.39062 130.324 291.242
1.61062 123.594 298.262
9.37062 121.634 267.812
15.0806 104.564 289.182
11.2606 143.424 293.262
3.72062 151.034 303.222
-9.27938 154.944 296.252
-9.50938 156.844 284.012
11.6406 163.424 307.462
4.09062 172.834 316.692
11.4806 186.334 316.682
3.98062 197.774 323.612
-8.98938 200.404 317.582
16.9806 148.344 287.052
-7.73938 202.904 307.562
-14.9594 191.924 318.322
-13.5694 208.304 322.572
-20.4094 155.304 303.612
-33.0194 158.924 297.582
-40.2094 169.454 306.012
-34.7194 173.954 316.172
-41.7094 146.174 295.742
-44.5894 139.814 309.102
-34.8194 137.054 285.322
-56.2394 130.014 308.402
-19.9194 153.944 313.342
-52.3194 173.604 301.922
-60.0894 183.724 308.892
-64.8694 179.674 322.752
-68.9294 168.384 325.862
-72.2594 187.644 300.792
-81.0994 199.024 305.862
-76.7094 210.294 308.032
-92.9594 196.424 307.332
-56.5694 168.864 294.512
-64.1094 190.254 330.792
-67.3594 190.004 344.732
-81.6594 185.874 346.592
-83.7994 177.194 354.842
-65.4094 203.714 350.752
-60.3894 198.474 327.052
-91.5094 190.814 339.052
-105.289 186.904 341.142
-108.789 173.324 335.192
-120.559 169.714 334.522
-113.919 197.464 335.102
-89.2694 196.634 331.572
-98.8694 165.284 331.302
-101.779 153.284 323.962
-107.619 141.984 331.902
-101.869 137.444 341.842
-89.3194 148.134 316.872
-86.8994 155.034 304.552
-89.5994 166.584 334.262
-95.0994 155.484 299.552
-118.849 136.384 327.172
-125.339 124.884 333.302
-116.599 112.694 331.842
-118.109 105.804 321.802
-138.179 123.654 326.002
-139.559 136.664 318.292
-125.579 140.294 314.972
-107.569 108.884 340.922
-98.8694 97.1543 338.802
-105.079 83.2843 338.112
-98.7494 73.6843 334.142
-87.9794 96.5543 349.432
-78.9394 108.744 350.762
-70.6094 106.214 362.992
-70.4694 111.384 338.562
-106.009 114.794 348.602
-117.619 81.7443 341.352
-123.989 68.9843 340.012
-129.149 67.0443 325.642
-133.019 56.0243 321.332
-135.499 68.0143 350.132
-139.669 79.5643 359.642
-146.189 92.3643 353.762
-157.579 91.9943 348.862
-139.919 103.104 354.642
-122.569 89.5543 344.412
-129.329 78.1543 318.032
-134.059 78.2543 304.362
-122.309 81.1543 295.332
-120.349 73.7343 285.632
-144.199 88.8143 302.582
-155.679 86.2043 311.822
-164.259 98.1543 311.632
-177.909 92.2243 310.132
-187.009 103.014 306.812
-125.669 86.4643 321.622
-186.909 110.144 314.392
-184.029 107.404 297.862
-196.629 99.2143 305.742
-113.709 91.0643 297.762
-102.649 92.9143 288.652
-91.8594 82.3543 289.402
-82.0894 83.7143 282.152
-95.9094 106.194 290.442
-106.269 116.454 287.122
-89.6894 107.574 304.102
-115.079 97.1143 305.272
-92.3394 71.4843 296.912
-81.3794 61.9843 295.782
-81.3494 54.7243 282.302
-71.1894 48.8143 278.532
-82.1994 51.7743 306.792
-98.5994 44.6843 308.642
-99.7594 69.7143 303.032
-92.4994 55.0943 274.532
-93.9394 48.3243 261.592
-84.5094 53.9043 251.392
-80.3794 46.9243 242.192
-108.129 49.7043 255.762
-120.419 40.4243 257.742
-117.399 28.9943 267.342
-132.149 49.3043 262.072
-100.339 59.8243 278.082
-80.6294 66.4243 253.392
-71.7294 73.4343 244.442
-57.7894 67.5643 245.592
-48.9994 71.0143 237.842
-72.6994 88.4043 248.142
-87.0094 92.5743 245.222
-63.5494 97.2243 240.162
-91.4494 106.994 246.752
-83.6094 71.0843 261.492
-55.1394 58.0943 254.472
-42.0694 52.0343 255.642
-40.5394 39.6843 247.252
-29.7894 33.8943 246.532
-61.8794 55.4943 261.072
-51.4094 34.6643 241.632
-50.0094 24.0743 231.892
-61.5094 22.8543 222.342
-60.6694 29.5243 212.152
-47.9794 10.6343 238.382
-43.1994 -1.83569 226.012
-60.1894 38.6243 243.432
-72.0894 15.0843 225.042
-83.2394 12.4443 215.962
-89.9094 24.2343 208.932
-90.5694 23.2643 196.742
-73.3694 11.8343 234.102
-94.8294 34.8943 215.272
-100.279 46.0743 207.782
-89.4994 51.5743 198.872
-91.2694 49.5743 187.002
-104.959 57.5243 216.382
-110.699 69.2843 208.712
-123.249 68.4943 203.092
-103.619 81.0943 207.942
-128.579 79.5343 196.932
-109.039 92.0843 201.742
-121.499 91.2443 196.292
-94.3994 35.4143 225.012
-78.7494 58.2043 203.062
-68.0294 61.9943 194.092
-63.7294 51.7043 183.872
-61.6894 55.8743 172.472
-55.9794 65.8343 201.922
-59.3994 78.0443 208.302
-77.9794 61.0443 212.372
-52.5894 79.9043 214.902
-62.8294 38.7243 186.082
-58.9694 30.0143 175.302
-69.4894 30.9243 164.312
-65.1094 34.4943 153.462
-57.4694 15.9943 180.482
-46.4794 16.9643 189.542
-54.9594 5.63431 169.782
-66.1194 35.0143 194.502
-48.4094 24.2143 195.642
-82.7094 29.2943 165.872
-92.4494 30.8543 155.192
-94.0694 45.3343 150.532
-93.0494 47.4943 138.562
-86.1194 27.7243 174.952
-96.0494 55.9043 158.472
-99.0194 69.2443 153.342
-87.7494 74.6243 145.012
-90.4294 82.5043 135.972
-101.739 78.6743 164.592
-105.429 93.1843 161.662
-118.629 96.8843 160.402
-95.8594 103.164 161.412
-122.529 110.114 158.862
-99.7094 116.384 159.932
-112.999 119.894 158.772
-116.699 133.204 157.772
-95.3294 54.5043 168.152
-126.269 133.764 156.922
-75.2694 70.2543 147.152
-63.6194 74.0943 139.162
-62.0394 65.5943 126.702
-57.2194 70.3643 116.462
-73.6594 64.3143 154.802
-66.2294 53.0043 126.722
-65.9294 44.7343 115.062
-75.1394 51.0743 104.842
-72.6994 49.4443 92.8619
-70.6294 30.9243 118.712
-61.8294 23.7443 127.402
-69.3094 48.9143 135.132
-52.7494 25.8043 124.862
-85.3994 58.4943 109.152
-94.0494 65.7843 100.292
-88.4694 79.6643 97.6119
-85.3294 83.2643 86.2019
-107.549 67.2643 106.402
-87.3894 58.3443 118.762
-86.6994 87.8043 107.852
-81.7194 101.404 106.282
-67.1994 103.584 102.242
-64.2394 113.004 94.8919
-85.2294 108.254 119.572
-77.2994 120.434 122.352
-99.6694 112.524 118.662
-89.4694 84.8743 116.772
-57.7694 95.5243 106.862
-43.7694 98.0843 104.322
-37.5194 88.9243 94.2219
-29.6594 93.6943 86.1319
-36.2394 97.0543 117.312
-21.4694 99.3243 117.502
-18.1494 113.884 119.912
-3.00938 114.004 116.332
4.33062 126.584 118.102
-60.4294 87.9943 112.332
-0.0093801 133.944 112.172
3.91062 129.474 128.082
14.2406 125.234 115.272
-40.4594 75.8943 94.4019
-34.2394 66.1543 85.2019
-40.7294 65.9043 71.0419
-34.5094 69.0543 60.8019
-34.7394 52.0543 92.2719
-28.4794 41.4343 83.1419
-27.6494 52.4543 105.622
-46.9794 72.8643 100.962
-53.5694 61.9743 70.2619
-61.0394 62.1343 57.9119
-63.4894 76.3843 53.6419
-65.6194 78.0743 41.8319
-74.5794 55.7143 59.3619
-58.0994 58.5943 78.2719
-63.4994 86.7343 62.0519
-66.4694 100.444 58.0219
-79.3394 101.624 49.9419
-80.1294 107.094 38.8219
-54.8894 106.334 49.8919
-42.6394 106.634 58.6519
-30.5394 112.874 52.1619
-18.3894 112.894 61.6819
-16.7694 125.304 69.5119
-61.6894 85.0143 71.4519
-15.5894 133.344 63.0119
-25.2294 126.834 75.3619
-8.39938 124.534 75.6319
-89.7294 95.5643 55.8019
-103.059 95.0143 49.8719
-107.719 108.914 45.7819
-103.209 118.804 51.7419
-112.229 88.3243 60.0619
-126.959 88.4043 56.5519
-107.549 73.9743 60.3419
-88.3094 92.0043 64.8119
-116.149 110.084 35.3619
-119.559 123.094 30.3719
-133.829 127.224 32.3019
-142.419 119.534 36.3419
-115.899 124.274 15.3419
-105.999 114.984 11.1319
-109.129 137.894 13.5819
-120.489 102.234 31.4419
-98.6294 114.884 17.4419
-135.869 140.054 30.3319
-148.919 145.944 29.7019
-157.059 138.964 18.5219
-151.889 137.044 7.40189
-146.639 160.924 26.7319
-146.389 171.414 38.0719
-159.539 171.464 46.0719
-169.619 165.274 42.0919
-159.999 178.394 57.6719
-128.139 145.964 29.8519
-168.459 178.204 62.5719
-151.939 182.984 60.7419
-169.479 134.534 20.3619
-176.939 127.984 9.78189
-174.559 112.834 8.59189
-184.169 105.524 5.40189
-173.589 135.734 29.2119
-162.619 107.194 11.4619
-159.649 93.0843 9.43188
-169.119 82.2343 14.5419
-178.379 84.5443 22.4019
-145.649 90.6143 14.9219
-142.689 95.0543 27.9219
-155.549 113.164 14.6619
-148.199 102.404 30.9719
-167.209 70.2043 9.18192
-174.679 58.6443 13.6719
-164.889 49.4943 20.8819
-155.249 44.7143 14.8119
-181.259 51.6943 1.31189
-191.319 60.8143 -3.1781
-187.709 38.0243 4.18192
-160.259 68.7843 2.5119
-187.979 69.8143 -3.7381
-167.129 46.9943 33.6519
-158.499 38.2443 41.1119
-165.489 25.3943 44.2419
-177.619 25.1543 44.4919
-154.419 45.2543 53.6619
-146.469 60.6043 48.8719
-175.029 50.5943 38.1719
-158.309 14.4343 45.6519
-163.849 1.76431 50.0919
-154.679 -2.11569 61.6419
-142.499 -1.08569 59.9019
-162.969 -9.37569 39.7919
-148.589 14.8143 44.1119
-160.009 -5.59569 73.4719
-152.269 -9.89569 84.9819
-155.909 -24.7057 86.7719
-167.599 -28.5557 86.1719
-156.359 -1.1657 97.2419
-147.169 -4.10568 109.232
-155.759 13.7743 93.5019
-169.809 -6.2757 74.0919
-146.449 -33.7257 88.3919
-149.649 -47.7557 89.9119
-148.189 -50.9357 104.662
-137.429 -48.5357 110.022
-140.099 -56.5657 81.5719
-144.349 -57.9157 67.0619
-145.029 -46.8857 58.6219
-148.099 -70.4657 62.2219
-149.539 -48.7057 45.7319
-152.579 -72.0257 49.1819
-153.299 -61.0857 41.0619
-137.279 -30.8057 89.7819
-157.929 -56.5757 111.502
-156.459 -59.2457 125.502
-160.339 -46.9257 133.302
-156.819 -35.6357 130.402
-166.459 -58.2657 107.022
-168.379 -48.0257 143.472
-172.979 -36.1857 150.672
-172.889 -37.9557 166.002
-183.439 -38.6557 172.502
-186.959 -33.0857 145.242
-189.629 -30.2057 130.372
-203.709 -34.7057 126.892
-186.879 -15.4457 127.502
-171.439 -56.7457 146.002
-160.799 -40.9357 171.202
-158.959 -41.4857 185.462
-154.789 -27.3257 188.512
-155.199 -19.0357 179.342
-153.019 -40.1057 165.302
-149.749 -24.2757 200.452
-146.189 -10.6357 204.162
-137.379 -3.17569 194.262
-139.009 8.85431 192.142
-148.519 -31.5657 206.982
-128.019 -10.1457 187.612
-118.959 -3.96568 177.482
-126.299 0.0743103 164.722
-124.359 11.3243 160.312
-107.209 -13.5157 173.332
-96.9494 -4.89569 165.632
-100.879 -20.6257 185.472
-127.019 -19.5757 189.952
-134.639 -8.91568 159.192
-143.059 -6.43568 147.732
-152.379 5.14432 150.932
-155.199 13.4143 142.172
-135.229 -17.7357 163.322
-157.019 6.32431 163.402
-165.009 17.6543 167.392
-156.589 30.0743 167.522
-162.269 40.4843 164.592
-170.689 15.9443 181.192
-185.019 11.6843 183.672
-189.829 2.51431 172.482
-185.759 5.90431 197.742
-155.359 -0.895691 169.822
-143.499 29.8343 170.302
-135.179 41.8643 170.352
-131.609 46.8943 156.272
-130.529 58.9743 153.462
-122.679 38.8343 178.352
-125.829 34.2943 191.362
-139.399 21.4243 173.142
-131.159 26.2643 191.132
-130.249 37.3743 146.892
-128.219 39.9443 132.612
-140.129 48.2143 127.952
-138.339 59.4143 123.942
-127.459 26.3743 124.822
-125.089 29.2243 110.312
-115.649 17.9443 128.452
-130.489 28.0643 149.962
-152.429 43.3243 129.432
-165.039 49.6543 125.162
-166.269 63.7143 130.192
-170.679 72.2843 122.362
-177.649 41.9343 129.882
-177.079 27.5943 125.172
-189.839 47.9643 123.802
-189.609 19.1043 127.302
-153.129 34.5143 133.732
-162.259 65.6543 142.882
-160.869 78.8543 148.792
-150.419 86.9843 141.042
-153.359 98.3743 137.522
-156.879 77.3843 163.562
-168.909 72.8143 172.342
-166.789 69.4243 190.162
-162.469 85.9543 194.822
-160.679 57.8043 148.542
-138.489 82.0243 137.322
-128.659 89.4943 129.422
-133.399 93.0643 115.402
-132.099 104.484 110.952
-136.349 72.8043 139.852
-138.789 83.0443 108.272
-144.309 84.0843 94.6419
-155.209 94.3143 95.2219
-156.149 102.334 86.0819
-151.219 71.5843 89.2019
-142.649 55.8343 87.1919
-138.849 74.2443 112.522
-163.309 94.1243 105.862
-173.249 104.324 108.112
-165.959 117.574 109.482
-168.779 126.454 101.632
-180.989 101.144 120.582
-189.769 112.494 125.662
-204.159 111.254 121.112
-212.839 122.434 127.372
-215.439 120.714 141.672
-162.599 86.9143 112.422
-206.429 120.554 146.862
-221.289 128.614 145.082
-220.479 111.754 143.202
-156.209 119.494 118.252
-148.869 131.934 119.252
-142.739 137.254 106.142
-141.669 149.654 104.582
-137.919 130.034 129.182
-153.959 112.164 124.312
-138.549 128.424 96.6019
-132.859 132.854 83.9919
-143.609 136.724 74.3119
-140.379 143.194 64.2719
-124.999 122.174 77.2819
-139.029 118.864 98.6118
-156.109 132.794 76.8019
-167.099 136.514 68.2719
-171.059 126.074 57.8419
-176.849 129.694 47.4919
-157.949 127.364 84.7219
-168.409 113.044 59.7719
-172.219 102.734 50.2019
-187.209 103.354 48.1819
-193.889 105.104 58.3319
-169.239 88.9543 55.3919
-164.309 110.354 68.2419
-193.499 102.654 36.3819
-207.999 102.984 36.3319
-214.039 88.9643 37.9619
-225.949 87.0843 40.5919
-212.729 109.394 23.6119
-188.599 100.924 28.0719
-206.049 78.5743 36.9319
-211.109 65.5243 40.1319
-202.069 58.0143 49.9519
-189.919 58.2843 47.9519
-212.359 57.9043 27.3319
-226.419 55.9043 22.3619
-224.399 48.5043 9.02188
-236.839 42.8943 4.33191
-237.749 30.4043 0.701904
-227.679 21.9243 0.521881
-249.839 25.9043 -0.428131
-196.679 79.6843 34.2719
-244.799 48.5943 3.78189
-218.539 24.9143 3.2919
-229.119 12.4543 -2.35809
-257.639 31.8543 1.4819
-251.339 16.3743 -3.05814
-206.969 51.7143 60.6319
-198.549 42.7043 68.4219
-206.619 29.6743 68.9119
-216.969 28.8443 75.4719
-195.339 46.7543 83.7519
-194.839 61.8643 87.6019
-181.869 40.0243 86.1819
-185.509 71.9643 81.0719
-216.489 52.5743 62.8619
-202.619 19.8243 61.1519
-208.889 6.77432 60.7419
-201.859 -1.61569 71.4819
-189.659 -3.4957 70.7119
-207.129 0.314316 46.5419
-213.129 9.45432 35.7519
-213.399 -13.7657 46.6119
-206.689 6.59431 22.0719
-194.639 21.2243 55.6219
-208.529 -6.53569 81.9619
-202.199 -14.0357 92.4719
-205.669 -28.0557 89.0919
-217.149 -30.0357 85.5519
-218.249 -5.87569 82.1119
-196.809 -37.9057 89.1919
-200.879 -51.2457 85.3119
-196.369 -60.8457 96.1619
-184.789 -60.8157 100.572
-195.329 -55.2157 70.1119
-186.639 -44.3657 63.8319
-187.499 -68.2257 70.2919
-187.449 -36.2657 91.6719
-205.299 -69.1057 101.532
-201.229 -78.1657 111.942
-209.799 -90.5257 110.632
-221.559 -89.4257 107.452
-203.019 -70.5657 125.412
-194.929 -76.0257 137.032
-197.899 -86.8957 141.482
-185.629 -69.6857 141.432
-214.589 -69.3757 98.3819
-204.709 -102.666 112.432
-213.659 -114.186 111.532
-223.459 -114.836 123.222
-232.619 -123.066 122.772
-206.029 -127.886 110.932
-197.689 -130.346 123.322
-197.839 -128.066 98.0919
-190.859 -144.036 123.082
-195.139 -103.846 114.072
-221.729 -106.496 133.872
-230.979 -105.526 145.242
-239.299 -92.7257 145.882
-235.689 -81.9557 150.622
-223.819 -106.846 158.662
-232.639 -104.646 170.972
-227.749 -100.196 181.162
-245.529 -107.126 172.252
-214.159 -100.386 133.642
-249.049 -105.336 181.222
-250.619 -111.296 165.062
