ply
format ascii 1.0
comment Created by Blender 2.68 (sub 0) - www.blender.org, source file
element vertex 1838
property float x
property float y
property float z
property list uchar uint vertex_indices
end_header
98.182 -659.686 487.249
118.292 -659.336 463.999
117.192 -674.486 463.499
111.012 -679.686 453.939
122.622 -681.176 472.589
101.232 -637.496 484.149
98.372 -633.796 498.009
83.792 -629.906 500.149
77.202 -635.266 509.129
107.582 -622.446 502.689
121.552 -626.796 507.299
121.722 -631.296 521.979
135.912 -631.766 527.699
144.402 -642.356 521.529
78.852 -620.606 491.969
65.172 -615.436 493.459
55.132 -621.826 483.859
43.002 -620.446 485.659
64.432 -600.036 492.009
70.722 -593.196 503.989
70.982 -595.556 479.109
60.212 -628.746 473.719
51.662 -635.446 463.999
50.172 -627.506 451.199
56.082 -616.826 449.639
42.172 -632.836 442.029
39.892 -626.566 428.979
30.102 -614.896 430.079
30.502 -605.556 422.029
34.872 -636.936 418.779
44.352 -648.776 416.789
38.402 -659.476 407.819
47.742 -671.526 406.659
42.162 -682.166 397.749
21.352 -615.616 440.109
11.422 -605.226 442.769
16.902 -594.906 452.599
11.072 -584.136 454.249
-1.49803 -611.356 448.419
-7.74803 -622.586 439.999
-15.908 -617.616 428.029
-16.868 -605.286 425.939
-21.398 -626.186 420.679
28.132 -598.286 459.009
34.292 -590.036 469.499
39.182 -576.386 464.909
40.682 -573.906 452.989
41.692 -567.536 474.509
45.692 -553.756 471.619
60.852 -552.256 472.369
67.002 -555.426 482.599
39.1519 -543.786 481.449
41.542 -529.566 476.889
24.182 -546.506 482.879
66.832 -547.406 461.519
81.352 -545.676 460.809
84.962 -531.156 457.809
79.812 -525.276 448.289
87.642 -554.746 450.069
82.692 -569.106 451.529
102.762 -554.446 451.089
82.6219 -576.826 438.549
93.8719 -525.476 465.909
98.102 -511.526 464.359
113.282 -510.116 464.599
120.252 -517.666 471.489
92.202 -502.476 475.379
78.882 -506.676 478.429
91.952 -487.886 470.879
118.222 -500.306 457.069
132.472 -497.336 456.299
135.582 -483.586 462.249
128.612 -473.806 459.439
137.452 -498.356 441.689
150.102 -490.256 439.569
139.812 -512.806 438.029
145.952 -483.036 470.619
151.012 -470.436 476.089
166.312 -469.916 476.009
172.952 -479.786 472.699
145.362 -467.686 490.129
145.732 -479.416 499.859
140.752 -475.636 513.719
148.482 -469.466 521.389
129.122 -478.926 516.969
171.762 -458.306 479.559
186.222 -456.066 479.849
193.492 -465.486 489.529
188.302 -468.716 500.299
189.182 -441.466 483.519
184.062 -431.646 473.119
189.052 -431.936 461.659
175.112 -423.586 476.449
205.502 -469.766 485.639
213.582 -478.946 493.709
221.712 -472.356 504.689
223.872 -460.226 504.579
226.252 -480.466 514.199
233.802 -475.496 525.659
248.802 -475.816 523.059
256.242 -467.406 528.169
230.862 -483.666 538.459
232.642 -497.616 535.739
216.642 -481.266 543.399
253.182 -485.566 515.129
267.432 -487.616 512.769
270.812 -494.736 499.829
266.592 -490.546 489.029
278.362 -505.636 501.039
284.612 -512.176 489.499
277.872 -525.186 484.929
281.152 -530.546 474.269
299.562 -514.516 492.289
307.652 -522.956 482.349
310.722 -515.296 469.479
320.362 -528.216 488.829
268.562 -530.306 492.899
261.642 -542.606 489.249
246.602 -540.746 488.879
240.952 -532.976 496.619
265.512 -554.106 498.599
278.662 -560.996 494.839
282.642 -572.186 504.439
276.872 -573.736 515.219
292.622 -580.006 500.499
240.262 -547.946 479.689
225.802 -547.566 478.119
218.992 -554.336 489.999
221.872 -565.936 493.129
221.702 -554.316 464.999
228.572 -548.246 452.889
229.092 -535.816 451.849
233.412 -555.926 444.329
210.072 -546.986 496.609
202.992 -552.096 508.349
188.362 -555.206 505.289
182.342 -549.206 496.379
204.042 -542.226 519.979
218.132 -540.566 525.469
218.342 -533.406 538.869
223.732 -522.146 539.509
213.062 -539.006 548.749
182.742 -564.666 512.749
168.932 -568.906 510.729
162.372 -572.886 523.969
165.732 -583.296 529.789
168.422 -580.486 500.669
154.952 -586.826 496.979
146.362 -577.216 488.929
157.032 -599.836 489.309
153.162 -564.476 528.719
145.402 -567.326 540.839
130.482 -566.956 537.719
126.172 -560.386 528.249
148.502 -557.286 552.079
163.392 -555.196 554.319
170.992 -565.126 554.889
167.472 -543.466 555.669
122.652 -574.086 545.739
108.092 -573.506 544.879
102.832 -566.556 557.389
103.412 -572.076 568.479
101.762 -587.566 543.489
86.602 -586.596 542.739
107.212 -594.776 531.249
97.852 -554.366 555.549
92.862 -546.286 566.709
77.652 -544.756 566.359
71.492 -546.026 555.729
99.572 -532.296 567.339
113.942 -533.376 572.569
99.022 -525.356 553.749
71.802 -541.996 578.049
57.292 -540.916 579.659
51.942 -528.616 572.359
54.082 -517.296 576.679
53.452 -540.576 594.539
58.842 -552.316 602.969
52.082 -565.786 599.959
39.582 -566.276 599.319
59.302 -575.946 598.409
45.132 -530.976 561.169
39.612 -520.236 552.869
27.112 -524.336 545.259
22.402 -535.706 546.549
21.802 -515.076 537.259
9.37196 -517.336 529.859
8.51196 -508.726 517.319
13.892 -497.716 517.059
-2.60803 -514.246 538.779
-15.298 -521.226 534.579
-29.678 -514.566 542.949
-33.408 -500.556 532.629
1.69196 -513.776 507.029
-0.838028 -506.156 494.749
-15.418 -507.256 490.429
-20.728 -518.376 489.289
8.22195 -510.876 483.339
6.54196 -502.856 470.459
14.522 -508.386 458.859
24.332 -502.386 454.589
10.332 -519.846 453.669
-21.708 -495.726 487.909
-35.728 -495.076 483.309
-37.378 -486.846 470.439
-28.488 -479.176 466.899
-44.918 -489.846 494.389
-41.108 -476.316 499.619
-31.988 -475.066 510.029
-46.828 -464.806 494.309
-28.518 -462.526 515.009
-43.438 -452.236 499.209
-34.278 -451.096 509.599
-48.778 -488.146 463.629
-49.998 -483.186 449.769
-57.398 -469.756 447.709
-68.618 -469.336 442.479
-55.648 -494.176 440.619
-46.618 -506.546 439.969
-39.578 -508.216 429.709
-46.568 -514.536 449.679
-50.778 -458.886 451.709
-55.768 -445.216 449.829
-44.718 -436.286 444.189
-32.878 -439.546 445.319
-60.648 -439.326 463.139
-73.038 -445.926 469.099
-85.898 -441.426 462.169
-97.788 -447.046 468.609
-110.348 -443.736 465.659
-112.998 -434.706 456.259
-120.348 -449.496 472.179
-48.588 -425.006 438.259
-38.948 -415.266 433.109
-38.328 -402.586 441.369
-45.938 -401.056 450.959
-29.208 -393.566 437.649
-28.088 -380.216 443.809
-39.978 -371.306 440.119
-45.968 -373.136 429.469
-14.958 -373.276 439.749
-11.608 -373.576 424.869
-20.348 -368.346 415.329
0.491959 -378.816 420.419
-17.268 -368.626 401.769
3.68196 -379.086 406.869
-5.22803 -373.946 397.609
-2.11804 -374.166 384.199
-43.428 -361.736 448.759
-54.408 -352.496 445.669
-49.908 -340.536 437.339
-57.938 -334.666 430.079
-62.038 -348.176 458.219
-75.248 -355.636 460.389
-78.758 -356.556 475.099
-86.628 -349.186 452.479
-37.078 -337.076 438.369
-30.948 -327.106 429.609
-17.998 -332.076 423.269
-9.10803 -336.896 430.339
-28.448 -313.946 436.949
-36.748 -303.686 431.799
-16.878 -330.776 409.869
-4.76804 -334.636 402.579
7.10196 -325.526 405.789
18.392 -328.366 401.669
-8.87804 -333.156 387.859
-19.838 -323.226 387.939
-27.248 -325.486 400.789
4.48196 -314.736 413.139
14.922 -305.346 417.169
21.692 -309.136 430.359
31.062 -302.406 434.739
9.49196 -291.026 417.519
7.06197 -285.516 403.719
17.692 -280.966 395.859
-5.77803 -285.076 398.359
15.572 -275.986 383.039
-8.02805 -280.086 385.529
2.68196 -275.556 377.939
0.481964 -270.606 365.289
17.012 -319.986 436.509
23.522 -325.596 448.289
36.342 -333.026 444.499
45.372 -334.606 452.769
14.042 -335.006 455.639
3.84196 -328.026 464.209
7.69197 -318.406 473.479
-9.61804 -331.386 463.259
-1.70804 -312.116 481.519
-19.098 -325.156 471.259
-15.128 -315.496 480.409
36.902 -337.566 431.969
48.5919 -344.306 426.289
61.242 -336.046 428.169
62.122 -324.626 423.549
46.672 -347.306 411.169
35.522 -357.586 409.099
59.762 -352.126 404.769
31.172 -359.236 394.619
70.962 -341.936 435.049
83.982 -335.676 436.949
94.392 -340.846 426.969
101.972 -332.956 421.299
88.792 -337.326 451.419
88.372 -351.766 456.179
82.112 -360.376 449.949
95.062 -354.476 467.309
94.652 -354.016 424.859
103.572 -360.156 414.989
95.772 -362.426 402.069
87.772 -371.766 401.229
109.392 -373.456 420.109
116.812 -372.846 433.559
130.892 -366.876 432.499
137.692 -366.506 446.159
149.432 -357.406 446.329
98.062 -353.886 391.909
89.682 -354.376 379.929
93.312 -365.896 370.609
84.802 -370.436 362.909
92.422 -340.896 373.209
106.222 -337.266 377.459
108.582 -343.576 390.939
105.792 -370.536 371.489
111.122 -380.996 362.709
102.932 -393.786 363.399
99.702 -399.716 353.089
125.882 -383.756 365.799
135.522 -374.496 358.329
149.742 -374.746 363.779
157.842 -366.266 359.429
152.862 -383.306 372.359
99.582 -397.986 375.529
89.982 -408.726 377.349
76.032 -403.456 374.199
68.312 -409.876 367.049
90.202 -414.266 391.729
91.172 -403.426 401.049
102.002 -423.606 393.719
73.092 -391.506 379.289
59.542 -386.106 379.289
52.532 -390.826 391.879
41.992 -397.166 391.219
58.522 -387.696 403.369
54.032 -392.906 416.299
57.652 -383.866 428.159
67.062 -375.916 427.399
59.642 -406.976 418.459
50.112 -385.226 439.059
52.752 -377.876 451.399
61.162 -386.716 460.469
60.202 -398.936 459.789
39.732 -373.966 458.529
42.462 -363.856 469.529
29.792 -368.266 448.589
69.362 -380.526 468.929
79.1519 -387.826 476.899
82.762 -380.276 489.639
88.292 -369.296 489.069
91.682 -390.246 468.509
99.722 -402.436 472.419
108.092 -407.806 460.909
113.722 -399.746 453.159
109.042 -420.196 459.609
79.632 -386.216 501.129
82.442 -379.966 514.099
90.762 -389.196 523.089
86.962 -400.696 525.369
69.402 -376.066 521.259
56.592 -372.216 513.719
45.472 -369.426 523.629
58.462 -360.326 504.549
102.082 -384.166 528.069
110.372 -391.526 537.669
104.492 -390.306 551.649
98.602 -380.036 554.949
124.692 -386.146 537.789
134.312 -392.716 527.909
148.312 -386.466 528.259
154.372 -385.636 539.209
153.292 -382.386 517.529
106.252 -400.786 559.739
101.272 -401.556 573.669
88.562 -393.266 576.629
88.752 -384.356 585.179
112.532 -398.236 583.649
121.762 -408.966 584.919
77.362 -396.456 569.829
66.022 -387.286 569.339
55.742 -389.196 580.429
54.912 -399.936 586.419
59.642 -390.646 555.899
62.392 -405.386 554.099
74.562 -408.876 562.369
48.072 -378.656 583.049
36.592 -379.376 592.059
23.742 -381.756 584.099
23.282 -379.096 572.089
35.522 -366.706 600.609
46.792 -365.026 610.459
46.542 -371.616 622.719
57.562 -356.806 607.539
56.872 -370.096 631.869
67.942 -355.236 616.649
67.582 -361.926 628.839
13.402 -386.856 590.769
1.07196 -390.746 583.939
-11.478 -386.516 591.529
-12.668 -388.876 603.529
0.621964 -405.996 581.459
13.022 -410.456 573.759
-11.898 -409.916 573.709
18.472 -423.776 577.989
-20.768 -380.226 584.389
-34.118 -377.636 589.659
-43.608 -388.146 584.149
-41.808 -392.946 572.959
-39.008 -363.676 585.729
-52.178 -359.006 592.049
-49.818 -353.506 605.989
-59.138 -348.676 583.419
-53.718 -391.676 592.019
-63.708 -401.356 587.779
-77.588 -397.086 592.469
-79.968 -395.916 604.519
-60.068 -415.216 593.129
-47.878 -421.756 586.519
-40.148 -430.586 596.179
-52.028 -429.456 574.079
-86.688 -394.686 582.989
-99.828 -389.026 586.299
-111.358 -392.836 576.939
-111.358 -389.086 565.199
-98.828 -373.816 587.389
-121.268 -400.016 582.339
-133.808 -403.086 575.119
-142.898 -390.756 574.349
-153.918 -390.476 580.019
-141.238 -415.086 581.419
-154.628 -418.226 574.439
-154.748 -420.936 562.199
-165.078 -418.026 581.319
-137.958 -380.506 567.449
-145.668 -368.446 564.559
-139.188 -360.636 553.209
-126.968 -360.946 551.479
-147.658 -359.626 577.009
-134.998 -355.556 584.359
-138.128 -345.926 595.689
-142.678 -332.336 590.429
-146.578 -323.026 601.379
-147.558 -353.946 545.359
-142.878 -345.576 534.459
-138.088 -332.316 540.279
-145.498 -325.736 547.609
-154.078 -343.356 524.299
-158.618 -355.956 517.159
-170.128 -352.976 507.799
-172.888 -364.646 498.529
-183.498 -361.346 488.599
-125.678 -328.546 537.249
-119.988 -316.096 542.419
-122.218 -304.626 532.599
-118.658 -305.556 520.829
-104.978 -317.356 545.869
-102.108 -330.536 553.109
-100.618 -305.596 554.459
-87.518 -332.666 556.569
-128.148 -293.836 537.619
-131.808 -282.336 529.369
-126.038 -269.286 534.759
-124.538 -259.566 527.349
-147.038 -281.186 528.319
-152.798 -293.316 523.739
-122.958 -269.136 547.689
-117.548 -257.266 554.159
-104.618 -259.886 561.769
-102.958 -270.356 568.029
-127.958 -250.906 563.419
-138.028 -242.286 555.939
-138.268 -230.036 557.509
-146.408 -248.626 547.769
-95.528 -250.196 561.129
-82.828 -250.766 568.359
-84.398 -246.706 583.139
-75.178 -248.496 591.139
-71.868 -242.166 561.329
-57.888 -245.846 566.559
-75.008 -227.196 562.569
-46.628 -236.706 561.999
-96.078 -241.296 586.689
-99.018 -237.636 600.579
-99.448 -249.986 609.649
-97.188 -248.996 621.729
-112.068 -229.586 601.579
-113.578 -221.956 614.729
-124.878 -211.696 614.429
-125.508 -204.456 627.309
-134.708 -195.336 630.429
-144.328 -192.076 621.639
-134.308 -189.416 642.469
-102.318 -261.546 603.669
-101.518 -274.456 610.509
-87.308 -280.066 609.759
-83.628 -289.026 617.399
-111.248 -284.506 604.189
-126.128 -281.686 606.409
-135.158 -292.906 601.269
-132.468 -298.386 590.349
-145.028 -296.226 608.179
-79.388 -274.586 600.569
-66.338 -280.116 597.019
-54.158 -273.596 603.529
-43.648 -279.946 604.569
-64.628 -279.946 581.829
-66.658 -293.436 575.549
-52.238 -303.926 578.119
-43.768 -301.616 562.519
-55.508 -261.056 607.789
-44.138 -253.406 613.109
-36.538 -259.986 624.799
-24.678 -262.996 623.309
-48.148 -238.966 616.569
-49.358 -228.606 605.329
-54.888 -215.476 610.859
-35.978 -226.246 598.319
-43.278 -262.466 636.299
-36.378 -267.916 648.139
-29.308 -281.256 645.649
-21.108 -285.616 653.779
-47.688 -269.676 658.369
-60.218 -269.646 650.359
-57.628 -260.426 638.989
-32.598 -287.606 634.469
-25.568 -299.466 629.919
-12.778 -295.056 622.709
-1.72804 -298.946 626.579
-34.498 -308.086 620.589
-27.348 -320.896 616.489
-47.818 -311.286 627.319
-14.458 -286.676 612.469
-3.50803 -282.166 603.819
7.04196 -273.776 611.009
18.832 -274.116 607.409
-9.07803 -274.356 591.899
-16.848 -282.156 581.289
-27.358 -273.306 574.919
-7.47804 -287.826 570.779
2.72197 -266.216 621.079
11.672 -257.846 629.029
21.712 -266.346 636.749
32.972 -262.026 639.269
3.58197 -249.096 638.669
11.6519 -238.396 645.999
18.722 -228.856 636.559
12.132 -223.486 627.389
30.902 -226.736 638.339
17.542 -278.436 640.379
25.982 -287.706 647.799
36.232 -294.806 638.909
45.852 -300.606 643.979
17.372 -297.856 655.209
34.212 -294.156 625.739
42.332 -301.666 616.019
56.442 -295.906 613.879
66.062 -303.456 612.229
34.932 -303.296 602.429
42.972 -311.836 592.789
21.302 -309.586 604.559
57.6219 -282.656 613.939
70.602 -276.046 612.359
80.062 -279.236 623.959
92.052 -281.196 621.859
68.822 -261.086 610.819
74.612 -279.576 636.139
81.642 -285.196 647.659
83.672 -300.136 645.139
74.072 -307.336 642.249
73.782 -282.876 660.609
80.012 -272.636 670.069
72.072 -271.526 683.089
81.112 -269.376 695.259
87.962 -256.166 695.499
96.182 -304.636 646.279
100.562 -317.816 641.389
99.202 -318.336 626.119
90.4019 -325.106 620.699
92.932 -329.336 648.269
108.082 -310.966 619.419
107.432 -308.456 604.969
106.782 -320.666 596.009
117.082 -326.586 592.629
94.542 -324.266 592.159
91.772 -335.746 583.509
78.632 -333.716 575.799
69.722 -326.656 580.559
91.342 -348.676 591.759
104.882 -355.516 593.139
106.712 -361.686 606.859
121.262 -365.296 609.279
124.022 -367.696 623.719
77.502 -339.696 563.739
65.322 -339.016 555.539
52.872 -345.676 561.619
53.772 -352.546 571.849
69.382 -346.276 542.629
84.302 -346.016 542.509
88.172 -347.196 556.849
41.432 -343.646 555.079
28.482 -348.426 559.889
20.202 -355.106 548.829
20.452 -350.726 537.339
20.692 -336.726 565.899
6.44197 -338.996 570.909
6.46196 -346.316 584.209
-0.628036 -325.746 572.209
12.892 -365.676 552.409
3.80197 -372.396 543.069
-10.528 -373.276 548.289
-13.448 -380.616 557.749
8.94197 -386.326 539.259
0.441956 -394.796 529.669
-1.68803 -387.926 516.259
6.72197 -408.446 527.579
-19.378 -365.736 541.849
-33.558 -365.856 545.039
-40.158 -377.386 537.679
-38.468 -378.956 525.569
-40.608 -352.676 540.759
-32.878 -340.266 545.519
-55.198 -352.446 545.389
-33.018 -337.836 560.519
-47.518 -385.546 545.119
-56.588 -395.216 539.129
-70.418 -393.176 545.359
-73.498 -398.536 556.059
-51.738 -409.796 540.709
-36.738 -410.916 537.679
-59.818 -418.956 531.589
-30.228 -423.726 542.639
-78.508 -384.996 538.669
-92.148 -382.166 542.959
-101.988 -387.066 532.399
-97.848 -391.786 521.739
-93.938 -367.326 545.539
-114.948 -386.056 535.419
-125.368 -390.616 526.229
-123.058 -384.326 512.459
-121.188 -391.366 502.479
-139.368 -387.526 531.789
-150.818 -394.646 524.449
-163.208 -397.036 533.039
-161.958 -398.296 545.419
-174.258 -397.886 527.279
-122.918 -371.056 512.179
-118.608 -363.426 500.559
-112.548 -350.406 505.669
-115.038 -346.406 517.059
-130.438 -360.586 491.209
-126.088 -355.936 477.299
-113.908 -354.666 474.679
-134.978 -353.526 468.869
-104.348 -343.996 497.409
-99.548 -330.536 500.409
-105.118 -321.006 489.689
-103.848 -323.636 477.679
-84.098 -330.006 501.609
-79.518 -316.216 505.959
-79.128 -340.446 511.559
-111.418 -310.096 494.109
-119.838 -301.876 485.359
-115.638 -287.296 483.959
-109.268 -281.656 492.889
-134.258 -302.196 490.309
-141.658 -315.006 487.429
-155.028 -315.486 494.459
-155.298 -314.056 506.869
-165.288 -317.306 487.589
-119.508 -281.406 472.609
-118.448 -267.036 469.779
-107.558 -259.286 476.909
-96.498 -257.796 471.699
-110.798 -254.346 488.849
-101.518 -246.396 496.919
-89.758 -254.786 501.929
-78.378 -252.676 497.709
-108.918 -239.596 508.539
-100.198 -231.056 517.809
-98.158 -237.226 531.599
-101.178 -230.356 541.589
-93.628 -248.836 532.579
-92.618 -264.336 510.749
-82.428 -273.236 516.309
-72.878 -278.296 505.529
-60.868 -279.476 507.839
-88.988 -284.816 523.549
-78.398 -281.126 493.759
-70.508 -284.466 482.059
-61.198 -272.846 478.809
-49.338 -273.426 481.959
-79.668 -287.566 470.159
-73.368 -291.286 456.679
-67.978 -305.556 456.859
-83.328 -289.416 445.229
-66.768 -262.236 472.959
-59.078 -250.736 467.959
-49.718 -244.476 478.299
-39.928 -237.906 474.679
-68.428 -240.196 462.139
-52.818 -246.496 491.089
-43.978 -242.406 501.929
-31.338 -250.876 501.479
-20.368 -245.606 499.879
-50.538 -244.176 515.789
-64.158 -239.756 515.389
-42.918 -236.256 526.319
-33.118 -264.026 502.679
-22.058 -273.556 503.319
-13.668 -274.156 490.469
-1.55804 -276.256 491.149
-27.238 -287.536 507.039
-34.048 -289.596 520.649
-41.848 -302.556 520.789
-24.088 -289.406 532.079
-20.108 -272.226 478.929
-13.378 -273.016 465.849
-3.45804 -261.556 463.869
8.38197 -263.876 461.299
-23.438 -273.266 453.939
-16.288 -276.516 440.789
-34.488 -283.296 456.409
-8.34804 -249.236 464.989
0.271973 -237.526 463.829
9.85197 -237.196 475.779
21.922 -235.496 473.989
-7.86803 -224.256 462.379
1.34196 -212.016 462.289
-16.378 -224.476 449.649
4.52196 -239.356 487.819
12.582 -238.836 500.069
21.672 -251.076 501.829
24.252 -255.636 513.009
3.75197 -236.446 512.379
7.67197 -223.936 520.049
17.712 -223.726 527.169
-0.318024 -213.406 518.619
26.272 -256.346 490.509
37.252 -265.936 489.909
46.842 -261.866 478.789
58.452 -266.036 478.719
32.472 -280.416 487.599
21.282 -280.466 478.669
28.372 -286.756 500.639
41.912 -253.756 469.399
50.452 -247.526 459.319
60.412 -238.286 466.349
72.242 -238.166 462.939
42.212 -239.646 448.999
50.192 -235.026 436.639
45.542 -218.896 429.479
56.042 -207.476 438.529
55.562 -230.806 476.279
63.792 -221.316 483.879
75.362 -227.856 491.349
85.842 -221.666 493.309
55.272 -213.346 493.789
52.922 -198.826 489.909
53.052 -189.976 502.309
49.462 -176.126 499.389
37.252 -170.986 501.009
27.262 -178.526 505.569
35.032 -158.236 498.069
73.382 -240.306 495.509
83.512 -247.536 503.039
81.192 -246.706 517.979
89.212 -251.796 525.819
70.292 -240.116 521.899
65.652 -240.456 535.749
57.452 -253.266 537.859
45.592 -253.936 534.409
57.752 -227.646 539.679
66.872 -215.336 538.819
51.912 -228.926 553.789
59.872 -201.906 541.059
64.182 -263.386 543.369
58.682 -276.816 545.859
54.732 -284.276 533.099
45.092 -280.586 526.359
46.892 -276.766 556.029
41.882 -290.936 558.519
51.112 -270.266 569.159
62.352 -294.736 529.939
58.772 -304.146 519.309
47.842 -313.566 524.309
48.652 -318.736 535.499
71.002 -312.156 514.539
76.942 -307.606 501.149
84.502 -294.316 502.319
90.232 -289.736 488.859
97.092 -276.436 489.619
37.612 -315.586 516.009
26.042 -323.896 519.509
20.302 -330.626 506.939
24.792 -327.856 495.789
15.132 -315.596 527.159
7.16196 -306.646 517.669
5.76196 -324.626 535.139
10.632 -339.576 508.919
3.15196 -345.816 498.069
-9.76804 -351.416 503.709
-10.288 -355.146 515.419
11.282 -356.856 491.649
-20.178 -351.966 495.449
-33.108 -357.266 499.809
-39.188 -367.196 489.889
-40.688 -364.176 478.019
-42.818 -345.926 502.689
-42.648 -379.036 494.949
-48.728 -389.656 486.929
-62.188 -393.816 492.769
-64.328 -392.816 504.889
-39.518 -402.066 485.799
-27.938 -399.286 476.529
-34.368 -406.296 499.439
-71.168 -398.456 484.089
-84.578 -402.906 488.149
-84.128 -415.096 497.379
-75.348 -423.666 495.989
-93.028 -406.396 475.849
-96.298 -394.746 466.659
-106.278 -399.026 455.959
-110.608 -387.316 447.289
-121.428 -391.266 437.879
-93.618 -415.886 506.699
-95.048 -427.706 515.199
-99.008 -439.896 506.739
-108.728 -439.236 499.149
-105.248 -425.186 526.099
-91.418 -450.976 507.939
-93.228 -463.076 499.829
-106.518 -470.136 502.379
-110.378 -471.946 513.929
-81.728 -472.016 504.429
-78.588 -467.256 518.239
-80.338 -452.506 517.529
-113.348 -474.146 491.669
-126.398 -480.786 492.749
-137.598 -471.016 495.929
-135.388 -458.896 495.949
-149.588 -476.196 498.649
-161.278 -467.646 501.339
-170.168 -472.506 512.879
-169.528 -484.146 516.869
-169.638 -465.586 488.559
-177.808 -477.596 484.539
-172.298 -487.586 476.559
-191.048 -478.896 488.689
-179.818 -498.756 472.839
-198.648 -490.006 485.039
-193.018 -499.956 477.079
-178.278 -463.356 518.219
-188.678 -466.526 528.069
-184.188 -473.646 540.699
-177.588 -467.726 549.219
-187.978 -486.366 541.869
-184.678 -494.616 553.499
-170.148 -499.166 553.259
-162.998 -497.816 563.239
-193.808 -506.926 554.139
-208.268 -503.466 557.239
-210.818 -492.676 563.049
-217.088 -511.706 553.909
-165.918 -504.656 541.839
-152.138 -509.296 539.999
-142.108 -497.616 539.449
-129.978 -499.736 540.099
-150.758 -518.936 527.919
-154.408 -513.276 514.029
-147.908 -521.316 502.489
-146.588 -513.386 490.139
-137.258 -515.206 480.719
-128.118 -524.776 481.989
-136.968 -507.366 469.939
-147.328 -485.386 538.429
-139.328 -473.186 539.319
-133.938 -471.126 553.429
-122.118 -468.206 555.229
-147.738 -461.096 535.159
-141.608 -447.436 538.059
-149.968 -436.256 531.899
-148.228 -435.436 517.369
-156.508 -429.156 509.009
-167.398 -423.016 513.539
-153.918 -429.076 495.989
-142.718 -472.756 563.319
-139.698 -469.626 577.349
-129.478 -478.976 583.659
-121.428 -474.746 591.969
-152.588 -469.276 585.699
-160.378 -456.136 584.419
-175.358 -457.776 587.049
-183.238 -446.256 580.819
-197.908 -447.546 582.819
-129.818 -491.636 579.639
-120.588 -501.576 584.909
-106.598 -500.176 578.909
-96.718 -499.626 586.289
-126.048 -515.596 582.719
-105.798 -499.476 565.609
-92.928 -498.596 558.609
-84.168 -487.296 563.859
-71.928 -488.486 563.999
-94.798 -497.116 543.479
-98.068 -510.086 536.239
-92.078 -510.456 519.179
-75.488 -516.906 521.519
-90.468 -476.386 568.139
-83.198 -465.176 574.019
-77.218 -468.806 587.629
-65.568 -465.766 590.239
-92.038 -452.716 575.109
-97.208 -446.326 562.189
-106.158 -434.576 565.489
-85.868 -441.926 553.159
-85.138 -475.376 596.149
-80.378 -479.946 609.229
-68.658 -489.506 607.429
-59.088 -489.236 615.189
-91.648 -486.616 617.159
-87.858 -490.906 631.399
-85.518 -479.216 640.919
-91.698 -468.646 639.649
-76.618 -481.166 650.599
-69.538 -497.856 597.099
-58.368 -506.136 592.799
-45.878 -497.566 591.649
-36.158 -499.656 598.939
-61.368 -512.556 579.259
-69.968 -524.906 580.379
-78.508 -525.646 589.489
-68.148 -533.936 571.979
-46.448 -487.796 582.599
-35.518 -478.386 580.249
-30.798 -471.966 593.329
-18.758 -470.926 595.779
-39.508 -467.516 569.899
-42.178 -473.926 556.259
-28.658 -456.906 568.659
-47.288 -464.386 545.649
-40.328 -467.936 601.739
-37.278 -461.776 614.669
-29.508 -471.106 623.919
-20.608 -466.686 631.199
-49.998 -456.966 621.419
-32.918 -483.956 623.579
-25.878 -493.916 631.469
-12.488 -496.946 624.999
-2.48804 -498.956 631.899
-33.928 -506.766 632.609
-47.798 -503.506 633.869
-29.488 -514.716 644.799
-12.448 -497.116 611.689
-0.358032 -499.236 603.749
9.90196 -488.246 606.359
21.852 -490.966 607.319
-3.86804 -500.016 588.779
6.06197 -504.496 577.919
14.682 -492.986 573.099
14.742 -516.296 582.179
5.08197 -475.936 607.709
13.752 -464.316 609.399
16.152 -460.626 624.009
26.592 -454.956 627.319
8.23196 -452.146 601.909
-5.11804 -449.466 606.359
8.04196 -454.896 586.999
6.48196 -463.796 632.629
7.64197 -461.406 647.049
0.751968 -448.836 652.119
2.75195 -444.806 663.609
-7.33804 -442.616 643.559
-14.868 -430.646 647.239
-29.048 -434.036 651.409
-31.398 -444.296 657.829
-38.498 -425.326 647.849
-52.738 -427.586 650.619
-61.528 -421.206 639.799
-56.948 -412.596 632.189
-57.008 -422.256 664.609
-45.608 -421.146 673.239
-67.268 -431.576 670.969
-74.108 -425.556 639.129
-83.828 -420.006 629.679
-92.198 -409.146 636.539
-93.648 -409.126 648.819
-93.068 -431.006 623.649
-101.068 -425.616 611.769
-84.968 -443.066 619.289
-97.478 -399.866 628.559
-105.728 -388.916 633.619
-118.438 -387.376 625.169
-117.688 -385.046 613.089
-97.858 -375.526 634.049
-85.088 -376.826 642.429
-106.518 -364.306 639.609
-72.708 -380.646 634.469
-130.048 -388.706 631.609
-142.958 -387.776 624.699
-153.748 -380.536 632.839
-153.968 -381.246 645.149
-147.888 -401.686 620.449
-150.668 -409.886 631.679
-162.668 -373.716 625.679
-173.888 -366.296 631.519
-184.388 -375.526 637.709
-191.908 -371.336 646.579
-180.718 -357.646 620.819
-171.458 -348.476 612.779
-177.938 -343.156 599.999
-182.478 -351.346 591.659
-178.358 -330.756 598.279
-184.918 -387.936 632.809
-194.728 -397.976 637.119
-194.488 -400.506 652.169
-205.008 -400.656 658.629
-192.498 -411.256 629.759
-197.848 -411.786 615.519
-193.938 -424.616 608.289
-181.798 -427.076 606.529
-203.028 -432.196 604.319
-182.458 -402.456 657.619
-180.598 -405.856 671.809
-180.868 -393.426 681.009
-185.058 -394.246 692.639
-167.818 -414.836 673.939
-169.358 -428.216 666.419
-165.038 -417.296 688.839
-157.058 -437.306 666.549
-176.728 -381.956 675.589
-176.388 -369.296 682.989
-162.748 -362.656 682.389
-160.098 -353.126 689.759
-154.208 -367.766 673.479
-140.338 -363.196 671.859
-139.108 -351.956 661.509
-141.668 -354.016 649.589
-131.168 -374.896 667.899
-129.008 -385.476 678.679
-119.268 -399.506 672.829
-118.708 -409.636 687.609
-135.178 -340.136 666.209
-132.988 -328.546 657.569
-118.358 -327.916 653.139
-109.548 -333.466 659.749
-137.128 -315.556 664.689
-152.298 -313.876 666.689
-156.128 -301.356 674.579
-168.258 -299.156 676.619
-147.158 -293.726 678.759
-115.878 -321.136 641.959
-102.478 -320.216 636.129
-93.538 -310.186 643.519
-81.308 -310.226 641.829
-103.508 -316.386 621.329
-95.138 -323.886 610.889
-99.838 -320.246 596.859
-80.158 -321.416 612.329
-99.768 -301.726 651.709
-92.798 -291.206 659.169
-82.668 -296.426 669.439
-71.298 -291.736 669.849
-102.868 -281.786 666.009
-108.158 -270.266 657.259
-121.458 -273.336 650.309
-122.708 -284.116 643.999
-130.618 -264.786 651.049
-86.778 -306.076 677.669
-78.038 -311.526 688.169
-70.578 -324.316 683.859
-69.208 -333.896 691.629
-85.758 -313.476 701.319
-89.818 -300.346 708.019
-99.348 -302.466 719.729
-91.948 -303.916 732.989
-101.238 -303.446 744.689
-65.768 -324.206 671.389
-57.338 -334.856 665.969
-42.568 -331.366 668.029
-37.368 -321.876 661.989
-60.418 -337.126 651.209
-35.978 -339.096 676.679
-22.098 -336.576 680.779
-11.928 -344.636 672.649
-15.108 -349.666 661.839
-20.078 -339.256 695.929
-26.198 -351.726 699.579
-26.168 -328.046 704.179
0.271973 -345.776 677.869
10.922 -352.906 670.899
8.94197 -368.056 671.009
11.732 -374.656 660.999
24.662 -349.136 676.569
36.982 -353.536 668.549
47.452 -342.486 668.009
42.992 -366.496 674.019
4.15196 -373.496 682.219
2.44196 -388.056 683.609
-9.52803 -393.706 675.709
-9.87804 -405.686 672.509
1.60196 -392.256 698.349
7.73196 -406.066 701.049
-1.88803 -415.746 707.879
-11.078 -410.526 716.429
-0.158035 -428.776 704.729
-19.248 -385.076 672.679
-30.548 -388.616 664.019
-25.888 -390.676 649.539
-32.718 -397.126 641.509
-41.538 -377.896 664.739
-50.398 -379.306 677.099
-54.108 -390.746 680.539
-53.788 -368.966 683.309
-14.178 -385.146 646.399
-7.84804 -386.756 633.369
0.491959 -399.506 632.719
6.13196 -403.956 642.769
0.941956 -374.646 630.149
-4.79803 -362.496 622.749
-17.558 -357.076 629.089
5.80197 -351.596 622.029
1.25197 -405.246 620.759
8.53197 -417.696 618.539
22.022 -415.526 612.019
24.132 -405.576 605.109
31.152 -424.946 614.229
44.742 -423.906 608.979
48.682 -436.056 600.639
46.492 -447.546 604.669
54.922 -421.886 620.279
53.722 -408.686 627.879
64.252 -407.186 638.759
75.962 -404.516 635.909
60.092 -408.766 651.299
54.432 -433.256 588.949
60.582 -443.336 580.389
75.662 -441.036 580.369
81.332 -436.856 590.489
54.972 -442.406 566.299
82.142 -443.946 569.129
95.982 -439.936 566.929
97.642 -435.096 552.689
108.062 -429.656 549.109
105.872 -451.226 570.069
111.042 -451.026 584.459
125.152 -456.736 585.619
130.622 -455.136 599.779
144.072 -461.416 601.469
87.172 -437.046 544.699
86.872 -432.796 530.749
72.852 -434.956 525.319
66.842 -445.446 527.729
96.862 -440.946 522.449
103.112 -433.496 510.789
114.002 -441.926 504.449
123.742 -433.936 496.989
125.012 -433.936 483.719
117.112 -441.506 476.149
134.272 -426.356 477.969
67.572 -424.996 518.239
55.042 -426.716 510.769
56.592 -422.406 496.219
62.392 -411.946 493.319
42.822 -419.646 517.319
39.8419 -425.576 530.979
45.002 -404.786 518.429
51.482 -430.646 487.149
52.712 -428.276 472.809
38.702 -427.806 466.749
30.352 -436.316 469.879
61.072 -439.466 465.979
63.272 -436.466 451.159
74.432 -441.456 473.059
36.042 -417.846 458.279
22.842 -416.466 451.979
23.722 -414.176 436.899
28.992 -404.016 432.459
14.372 -405.096 458.389
14.312 -406.236 473.689
0.0919647 -405.336 452.879
9.91196 -393.696 480.909
18.452 -423.666 429.169
17.492 -422.396 414.589
4.99196 -414.806 410.509
-2.06804 -409.336 418.939
17.252 -436.216 407.869
31.102 -442.286 406.229
36.752 -442.276 395.249
36.592 -447.616 417.149
2.24196 -414.636 397.499
-10.238 -409.216 392.359
-22.088 -416.476 398.719
-32.428 -410.336 401.469
-10.668 -410.346 377.089
-21.348 -401.776 370.469
-18.238 -399.466 355.739
-29.158 -391.416 348.759
-30.328 -377.446 353.869
-20.308 -429.466 401.249
-30.768 -438.036 406.979
-25.648 -448.876 416.739
-31.768 -459.526 417.919
-39.518 -444.256 395.849
-31.408 -448.996 383.679
-31.918 -461.066 380.499
-24.678 -440.696 377.169
-14.648 -446.106 423.839
-8.58804 -456.006 432.969
-1.39804 -450.236 445.279
10.372 -446.706 444.609
1.32196 -465.396 425.589
-3.62804 -468.466 412.499
3.45197 -478.346 433.469
-8.51804 -449.536 456.489
-2.43803 -446.526 469.499
4.63197 -458.996 474.819
0.231964 -470.196 472.199
-13.078 -442.286 479.909
-20.788 -431.346 474.809
-6.54803 -438.156 493.099
15.522 -457.076 482.239
22.332 -468.216 488.909
30.072 -463.826 501.359
39.312 -455.816 500.479
31.162 -476.756 479.159
41.252 -483.676 486.539
37.812 -468.266 468.519
26.082 -469.156 512.879
32.122 -465.786 525.739
42.952 -475.876 529.399
39.962 -487.576 531.829
21.492 -465.376 536.959
10.852 -454.816 533.859
27.982 -462.666 550.459
-0.768036 -454.466 543.619
55.462 -471.256 529.879
67.002 -479.886 532.829
71.872 -478.606 547.279
73.5919 -467.496 552.309
78.892 -477.336 523.049
76.182 -483.546 509.349
91.922 -483.066 528.429
69.712 -474.176 499.489
74.022 -490.116 553.709
80.132 -491.226 567.079
73.322 -482.686 577.889
79.902 -475.116 585.109
95.332 -488.506 566.399
102.762 -492.626 579.159
98.062 -501.706 586.319
113.432 -486.776 581.989
60.1219 -484.006 578.969
52.362 -476.476 588.839
55.652 -480.456 603.079
54.592 -492.206 606.629
59.632 -470.696 611.239
64.022 -473.516 624.959
52.022 -476.466 633.979
48.242 -468.356 642.449
73.222 -462.306 631.019
79.902 -467.136 643.999
83.942 -457.846 621.009
46.042 -488.166 631.849
35.342 -493.196 640.359
41.242 -501.126 651.829
51.062 -496.906 658.049
35.282 -512.676 654.609
39.882 -521.276 665.459
40.1219 -535.946 661.289
33.742 -539.826 651.479
31.032 -519.516 677.899
32.212 -505.986 685.039
44.352 -505.076 694.139
42.472 -504.286 706.469
55.752 -505.176 689.019
47.652 -543.996 668.769
47.462 -558.506 667.249
33.952 -564.116 671.679
27.492 -571.526 664.239
58.782 -565.006 675.329
71.582 -567.726 667.459
82.432 -574.356 675.909
84.292 -586.676 674.719
89.062 -567.256 683.799
29.722 -560.266 683.729
17.682 -565.696 690.099
4.55197 -560.096 684.569
-5.98804 -566.286 686.149
18.372 -563.736 705.269
5.21196 -548.446 678.149
-6.71803 -541.956 672.689
-10.638 -547.366 658.929
-22.478 -549.496 656.229
-4.86804 -526.846 672.229
-0.688034 -549.496 650.319
-2.91803 -555.196 637.009
-6.84804 -569.896 638.009
-17.228 -573.906 632.729
9.36197 -553.206 627.749
8.82196 -539.286 621.399
9.99197 -564.016 616.869
21.642 -535.046 614.419
1.36197 -577.766 644.959
-1.53804 -591.876 647.569
-15.208 -593.616 654.389
-21.848 -603.906 652.689
9.66196 -598.086 656.059
9.72197 -613.436 656.779
12.082 -620.116 643.289
19.682 -615.136 634.939
5.55197 -631.496 641.149
-19.298 -583.456 661.989
-32.388 -583.186 668.509
-43.748 -580.076 658.929
-53.988 -586.956 658.999
-41.928 -569.696 650.729
-51.828 -565.756 640.659
-53.898 -576.726 630.239
-65.048 -578.686 625.449
-47.808 -552.606 633.859
-57.818 -547.176 623.559
-69.668 -540.066 630.079
-78.518 -533.786 620.219
-89.488 -526.806 623.189
-93.168 -525.066 635.799
-96.838 -521.536 613.489
-43.178 -583.846 626.829
-43.948 -594.976 617.319
-52.048 -606.636 623.069
-62.088 -610.776 617.179
-29.908 -599.776 612.799
-31.028 -611.826 603.529
-22.458 -588.556 605.819
-47.768 -611.766 634.609
-54.788 -622.676 641.389
-69.418 -619.086 644.199
-77.478 -627.796 647.639
-47.548 -626.526 654.279
-72.668 -606.246 642.609
-86.298 -601.196 644.099
-93.798 -601.386 630.739
-105.478 -605.296 630.289
-86.148 -587.026 649.999
-99.848 -581.496 653.999
-100.638 -566.316 652.889
-109.268 -560.946 645.929
-91.578 -559.346 659.669
-87.118 -597.156 619.989
-93.248 -596.766 606.639
-95.098 -610.846 601.059
-104.338 -613.336 593.349
-85.278 -587.936 596.579
-84.908 -573.336 601.229
-91.388 -588.726 582.559
-74.728 -564.656 594.009
-86.328 -620.016 605.069
-87.428 -634.036 601.019
-98.688 -641.286 608.609
-102.908 -652.226 604.719
-73.948 -641.266 602.559
-72.638 -654.086 594.259
-58.168 -658.916 593.039
-50.948 -652.506 582.009
-39.818 -645.306 583.329
-34.268 -643.516 595.259
-34.138 -639.966 572.609
-103.528 -635.106 619.389
-115.158 -640.136 626.699
-128.068 -635.366 620.099
-138.638 -641.376 621.909
-114.718 -635.726 641.359
-124.488 -643.206 650.409
-124.668 -637.946 664.629
-114.198 -635.756 670.749
-136.658 -635.996 670.019
-127.128 -624.526 612.449
-138.618 -619.076 605.289
-142.888 -628.736 594.339
-154.798 -630.656 592.019
-135.408 -605.356 599.149
-129.088 -595.056 608.639
-139.008 -588.566 618.169
-150.598 -586.256 614.699
-134.398 -585.466 630.249
-133.078 -634.786 587.699
-135.748 -644.256 576.889
-140.018 -657.936 582.069
-145.458 -666.066 574.539
-123.878 -645.626 567.069
-110.548 -646.496 574.609
-123.978 -634.106 557.169
-98.748 -651.316 566.209
-137.508 -660.486 594.899
-143.108 -672.236 601.629
-158.088 -670.156 603.739
-165.788 -679.736 603.849
-136.088 -674.956 614.999
-121.458 -680.296 613.539
-115.288 -683.656 627.259
-121.958 -681.776 637.719
-103.568 -688.296 627.699
-162.038 -657.516 605.349
-176.108 -653.566 606.249
-180.458 -646.636 593.259
-187.438 -636.466 593.529
-178.458 -644.356 618.349
-173.498 -649.816 631.749
-176.488 -640.496 643.419
-187.858 -640.906 648.609
-167.408 -632.896 647.489
-176.148 -652.156 581.929
-179.728 -646.836 568.799
-193.918 -650.936 565.079
-197.188 -662.846 564.809
-169.858 -651.566 558.239
-202.258 -640.986 562.179
-216.498 -643.186 559.409
-219.748 -644.146 544.439
-229.238 -651.006 540.519
-225.318 -632.276 566.069
-219.718 -619.306 563.629
-226.258 -634.556 581.129
-211.778 -637.336 536.219
-213.878 -636.796 521.729
-201.128 -640.176 513.919
-189.998 -638.166 518.849
-219.088 -622.946 517.709
-220.008 -621.556 503.639
-202.928 -645.246 501.709
-191.828 -648.916 492.859
-182.198 -637.276 490.389
-170.038 -638.916 491.319
-197.138 -654.146 479.449
-204.948 -667.116 480.799
-209.808 -670.226 491.889
-206.308 -674.216 470.619
-187.788 -625.586 487.269
-179.958 -613.656 484.029
-173.458 -607.456 496.329
-161.828 -603.456 495.809
-188.758 -603.356 476.839
-183.228 -589.226 476.479
-176.468 -584.476 465.269
-184.928 -580.566 487.309
-171.488 -571.486 464.869
-179.938 -567.636 487.049
-173.248 -563.136 475.799
-168.268 -550.276 475.559
-181.048 -606.526 507.259
-176.078 -600.846 519.819
-162.978 -607.526 523.929
-153.808 -600.896 528.869
-186.608 -602.036 530.939
-197.018 -590.856 530.449
-193.088 -578.986 530.289
-209.138 -593.916 530.379
-162.258 -620.636 521.609
-150.078 -628.546 523.229
-138.458 -622.636 515.079
-128.008 -619.176 520.679
-152.758 -643.066 518.959
-141.788 -653.136 522.419
-141.288 -664.856 512.539
-153.618 -672.756 512.249
-162.308 -672.866 502.159
-160.148 -665.496 491.329
-173.198 -680.396 502.879
-140.498 -621.406 501.939
-130.038 -617.016 492.649
-123.088 -604.206 496.869
-110.838 -603.836 497.589
-135.508 -615.396 478.429
-130.658 -625.986 468.669
-131.098 -621.326 454.199
-127.408 -609.626 451.449
-135.078 -629.456 445.559
-130.938 -593.836 499.719
-125.478 -580.616 502.889
-118.878 -580.236 516.619
-110.898 -571.246 519.509
-136.198 -569.736 501.629
-142.608 -568.916 487.799
-132.708 -564.856 476.759
-137.308 -569.876 462.999
-131.138 -562.666 451.429
-122.258 -590.066 524.949
-115.348 -592.176 537.599
-102.028 -599.366 535.349
-91.818 -595.416 541.059
-124.198 -599.806 547.519
-134.558 -591.776 555.449
-145.348 -600.946 560.819
-128.078 -584.006 566.809
-102.158 -609.786 526.979
-89.878 -616.806 522.999
-79.588 -606.956 517.409
-68.058 -606.646 521.809
-92.858 -627.656 512.579
-98.378 -640.756 518.189
-100.828 -651.386 507.379
-95.948 -650.256 496.079
-108.398 -661.776 510.909
-84.038 -598.826 507.839
-75.698 -588.626 501.469
-70.918 -578.046 511.259
-61.278 -570.966 508.419
-83.268 -581.736 490.039
-84.458 -589.956 477.229
-91.118 -582.236 465.939
-87.058 -570.646 463.339
-100.398 -587.836 459.669
-77.708 -576.986 522.659
-74.508 -566.716 532.519
-63.108 -570.916 541.919
-55.218 -562.436 546.289
-86.948 -562.576 540.409
-88.188 -547.556 542.369
-91.858 -544.076 556.719
-105.428 -548.016 560.499
-110.368 -547.146 572.849
-102.878 -542.526 582.799
-122.838 -550.926 575.269
-62.268 -583.866 545.009
-50.768 -589.146 552.409
-38.948 -591.736 543.179
-27.428 -591.326 547.479
-53.908 -601.926 560.509
-56.368 -598.486 575.039
-65.598 -609.536 554.549
-41.858 -594.296 530.459
-31.468 -595.716 520.239
-23.318 -582.836 518.709
-11.468 -583.226 515.349
-37.628 -599.726 506.929
-29.808 -571.476 521.119
-23.078 -558.566 521.269
-15.338 -557.066 534.309
-3.11804 -555.526 534.109
-33.158 -547.086 519.389
-35.618 -542.956 504.749
-49.168 -535.816 502.889
-50.738 -529.066 489.089
-49.078 -537.996 477.169
-22.458 -557.986 545.549
-16.838 -554.916 558.739
-6.05803 -564.716 563.319
4.88196 -560.586 567.199
-27.958 -554.006 569.229
-24.908 -546.146 582.009
-26.928 -531.226 579.839
-33.668 -550.946 593.389
-9.22804 -577.626 562.809
-0.0680389 -588.116 567.309
9.58197 -592.566 556.359
18.782 -600.336 558.959
-7.83804 -600.056 572.679
7.43196 -587.666 544.169
16.072 -590.946 532.789
29.032 -583.096 532.729
38.912 -587.246 526.579
28.842 -571.706 539.599
40.462 -563.056 540.839
44.872 -556.946 527.689
37.852 -557.936 517.529
56.562 -550.546 528.079
62.962 -544.566 516.359
77.712 -548.446 515.969
85.012 -546.706 525.819
61.762 -529.146 516.399
70.602 -522.986 505.699
47.312 -524.846 514.429
81.942 -553.856 504.569
95.932 -557.196 502.249
103.552 -544.586 498.399
98.252 -536.036 491.299
97.152 -567.726 491.339
115.902 -543.406 503.189
124.242 -531.856 500.029
138.182 -535.916 495.339
144.492 -544.886 500.999
124.622 -521.686 511.679
138.012 -514.506 512.499
113.282 -511.696 510.149
142.702 -529.196 484.789
155.532 -531.946 478.509
164.392 -519.486 478.979
160.722 -508.916 473.809
153.702 -536.336 463.849
140.792 -544.346 462.179
165.782 -544.316 459.099
136.522 -545.926 447.909
176.062 -520.856 485.209
185.532 -509.796 486.699
197.642 -511.856 477.589
206.982 -519.076 481.189
190.082 -508.566 501.339
178.802 -507.586 511.659
184.232 -504.486 525.579
173.042 -501.126 535.309
177.932 -492.706 546.589
197.482 -505.526 465.859
207.922 -507.596 455.759
221.552 -503.086 460.959
222.412 -493.336 468.399
204.702 -500.286 442.599
213.002 -505.956 431.179
189.952 -501.466 439.369
232.112 -510.236 457.029
245.642 -507.736 462.139
256.782 -508.146 451.809
259.542 -518.616 445.889
263.222 -496.636 449.819
274.322 -495.076 440.369
283.242 -483.176 444.159
279.362 -474.786 452.359
269.042 -493.506 426.079
295.132 -482.516 438.139
304.882 -471.946 440.959
300.182 -458.206 436.209
296.542 -456.406 424.569
318.412 -475.376 434.859
300.412 -448.626 445.459
296.472 -434.566 443.229
282.102 -431.886 438.349
275.312 -440.616 432.859
306.872 -426.356 434.809
312.912 -434.706 424.849
317.742 -420.346 443.819
277.852 -419.456 440.539
264.372 -414.586 437.719
262.122 -412.186 422.739
254.992 -402.866 418.819
262.222 -401.546 445.519
248.192 -399.466 450.929
247.602 -388.496 461.399
253.832 -377.866 459.339
240.852 -390.506 471.709
268.242 -420.626 414.439
267.552 -419.156 399.909
262.772 -432.176 393.599
254.312 -432.166 384.609
281.212 -414.496 393.869
292.192 -425.016 395.819
279.752 -410.746 379.119
268.232 -443.256 398.489
264.322 -456.506 393.929
253.362 -462.076 403.079
247.132 -472.266 399.969
276.552 -465.776 393.279
286.932 -461.546 382.729
300.422 -468.466 384.269
304.892 -474.896 374.509
306.582 -467.436 395.119
251.042 -455.116 414.239
240.352 -458.386 423.689
226.902 -453.416 418.339
217.112 -460.866 418.159
243.402 -452.216 437.369
237.272 -459.496 449.269
220.062 -455.266 452.419
221.272 -437.726 455.659
226.622 -440.816 413.989
215.022 -434.876 407.219
211.822 -441.736 393.899
200.142 -443.306 390.299
217.352 -419.886 404.809
209.442 -410.376 413.859
195.482 -407.026 408.269
195.962 -399.456 394.909
202.032 -385.866 395.809
222.242 -445.686 386.619
220.532 -452.056 373.659
214.382 -465.956 375.109
204.942 -469.296 367.929
233.822 -452.776 366.029
232.322 -453.116 350.719
225.452 -465.786 345.429
231.112 -476.806 347.079
214.412 -464.716 339.579
219.652 -473.966 384.369
214.862 -487.706 386.269
200.292 -487.876 390.869
192.202 -495.556 385.669
223.802 -495.436 396.039
223.502 -510.576 394.129
234.602 -517.446 401.909
236.392 -531.866 397.439
247.072 -538.766 405.179
197.082 -479.196 400.459
183.452 -477.296 405.379
173.892 -474.346 393.859
162.432 -478.826 393.909
183.302 -465.826 415.469
170.332 -463.856 423.069
172.672 -454.816 435.149
159.712 -450.936 442.099
151.532 -441.536 433.909
178.862 -466.896 383.999
171.102 -462.946 372.239
168.082 -474.676 362.979
157.282 -475.276 357.089
178.212 -451.776 364.579
177.632 -483.866 361.649
175.592 -495.956 353.659
167.002 -506.136 361.049
160.562 -514.476 354.759
188.912 -502.176 349.399
195.152 -495.426 337.239
205.642 -504.176 330.449
219.202 -501.886 335.489
224.672 -508.216 345.859
217.812 -517.346 352.659
237.092 -505.366 349.499
166.902 -505.266 374.359
158.942 -514.216 382.809
144.192 -510.616 382.189
135.992 -518.916 378.329
163.722 -514.226 397.579
153.602 -521.136 406.559
177.172 -521.096 398.829
140.892 -498.286 385.979
127.102 -493.546 385.709
120.102 -497.826 372.829
109.382 -503.916 373.409
126.442 -478.326 387.269
127.192 -473.286 401.599
126.892 -458.126 402.519
131.702 -452.676 412.649
121.862 -451.616 393.149
126.392 -494.866 361.389
120.782 -497.616 348.009
119.572 -512.596 344.899
109.832 -516.976 338.649
128.812 -490.386 336.979
123.952 -476.026 334.439
118.232 -473.516 323.619
125.832 -467.226 343.139
129.422 -520.366 349.369
129.392 -534.856 347.379
119.552 -541.836 356.659
112.862 -551.246 352.519
143.372 -540.616 349.059
118.722 -537.326 369.169
108.532 -542.286 378.349
95.012 -541.066 371.519
87.492 -550.776 370.719
108.292 -534.276 391.369
98.272 -539.466 401.789
105.632 -544.706 414.039
88.062 -528.786 405.769
92.142 -529.056 366.489
79.762 -526.316 359.229
77.442 -536.116 347.779
66.042 -539.946 345.109
79.502 -511.966 353.959
72.042 -502.406 362.769
58.652 -499.586 361.019
76.0919 -494.966 373.349
54.782 -490.826 370.129
65.182 -487.846 377.739
88.252 -540.136 341.099
87.522 -550.056 330.329
85.052 -564.156 335.659
77.742 -571.926 329.619
100.172 -549.696 321.809
91.182 -567.296 347.009
89.712 -580.306 353.369
75.692 -582.006 359.189
70.012 -592.896 358.719
100.362 -582.326 364.299
113.342 -579.736 358.829
100.072 -596.496 369.559
70.172 -571.176 364.579
56.3719 -570.996 369.529
46.362 -575.106 358.839
37.442 -583.146 361.399
52.712 -557.036 374.609
53.242 -555.396 389.639
40.752 -561.116 396.289
41.682 -560.116 410.819
47.402 -569.236 418.669
52.752 -580.296 413.449
47.782 -567.256 431.809
47.952 -569.426 346.909
39.252 -572.326 335.559
42.072 -586.166 329.779
33.322 -592.386 323.799
40.832 -561.626 324.899
54.322 -590.936 331.739
58.382 -604.086 326.969
51.932 -615.156 335.079
50.942 -626.446 330.459
73.502 -605.406 327.289
47.652 -611.886 347.179
41.212 -621.656 355.819
26.112 -621.566 353.519
19.792 -632.116 352.949
44.682 -619.266 370.849
36.842 -628.696 380.109
59.612 -620.876 373.189
20.452 -609.636 351.979
5.93198 -608.036 351.279
-0.0180359 -614.006 338.599
-9.85803 -621.406 339.229
1.89197 -593.286 352.879
4.00195 -587.846 367.059
-1.25804 -573.716 369.029
-9.41805 -569.146 360.729
2.74197 -567.226 378.989
6.04196 -610.936 327.169
0.701965 -615.326 314.299
10.722 -623.256 305.979
6.88196 -630.746 297.029
-4.85803 -603.476 306.329
-17.188 -596.986 312.739
-25.118 -588.306 303.189
-28.238 -593.026 292.049
-28.368 -576.826 306.969
23.542 -621.636 308.979
34.022 -628.966 301.949
42.022 -620.256 292.469
40.942 -607.996 292.789
50.062 -626.636 284.009
58.332 -619.586 274.209
56.392 -624.986 260.109
56.862 -636.996 257.919
73.382 -620.016 277.869
76.292 -610.816 289.489
